# .PCD v0.7 - Point Cloud Data file format
VERSION 0.7
FIELDS x y z intensity
SIZE 4 4 4 4
TYPE F F F F
COUNT 1 1 1 1
WIDTH 1382
HEIGHT 1
VIEWPOINT 0 0 0 1 0 0 0
POINTS 1382
DATA ascii
-3.0020988 2.8272114 -0.45956302 16
-2.9464748 2.7949669 0.16363624 76
nan nan nan 0
-3.8219862 3.6531322 0.42865869 42
-5.5303464 2.9180253 0.76290202 41
nan nan nan 0
-5.9179649 3.0907307 1.7746119 22
-5.7140322 2.9693267 0.035744157 15
-5.4639559 3.5113075 -0.00225322 24
-4.5635958 3.5631089 -0.03311744 32
-3.0514963 2.8630092 -0.048469305 31
-5.7373371 2.9839704 0.18514511 17
-5.617641 3.6017873 0.15400361 35
-4.58182 3.5709937 0.10070038 35
-3.0417192 2.858813 0.048352368 28
-3.778347 1.9423029 -1.9652659 80
-5.931428 3.0637412 -1.7373049 44
-5.650558 2.947571 -0.8844853 14
-5.6698117 2.9501026 -0.59930241 10
-5.6752715 2.9504452 -0.40996134 8
-5.3342404 3.4162157 -0.44236058 35
-4.5400763 3.542165 -0.43499345 38
-3.012856 2.8334932 -0.33462247 25
-5.6442018 2.9405751 -0.25955364 8
-5.3451295 3.4428558 -0.29684561 16
-4.5353293 3.5460899 -0.29962334 38
-2.9932046 2.8277178 -0.23728438 17
-5.687089 2.9541335 -0.11339504 6
-5.4474683 3.4967568 -0.14936146 32
-4.5753984 3.5685453 -0.16800866 35
-3.0092347 2.8390105 -0.14308792 25
-2.9857037 2.843277 -0.74060386 14
-2.9814095 2.8274009 -0.45788574 16
-2.9330931 2.8017793 0.16343296 79
-5.4918089 2.9185948 0.35955697 38
-3.8199706 3.6768305 0.42987993 42
nan nan nan 0
nan nan nan 0
-5.8601098 3.0866463 1.7604047 18
-5.6770492 2.9753511 0.035576604 18
-5.4726543 3.5439415 -0.0022619467 25
-4.5236254 3.5573728 -0.032915853 31
-3.0233355 2.8564513 -0.04817697 32
-5.6958909 2.9877546 0.18413731 35
-5.6260314 3.634932 0.15458389 33
-4.5457387 3.5684369 0.1001768 34
-3.0208416 2.8590884 0.04817697 21
-3.7715437 1.9554799 -1.9652659 88
-5.894948 3.0710399 -1.7297075 31
-5.6183128 2.9557679 -0.88102758 15
-5.6153817 2.9467828 -0.59460568 10
-5.6207275 2.9471052 -0.40674341 9
-5.3306661 3.4402213 -0.44306162 31
-4.5276842 3.5579913 -0.43499345 37
-2.992106 2.833698 -0.3334012 28
-5.6162047 2.9509797 -0.25873357 7
-5.3666005 3.4832368 -0.29872289 13
-4.495471 3.5402656 -0.2977916 39
-2.9688687 2.824367 -0.23612264 20
-5.64573 2.9577544 -0.11277199 9
-5.4352293 3.5157504 -0.14936146 31
nan nan nan 0
-2.9812157 2.8322639 -0.14221543 26
-2.9686685 2.8468614 -0.73881924 14
-2.9607563 2.8274813 -0.45620853 15
-2.9196992 2.8085318 0.16322967 92
-5.507997 2.9518719 0.36129957 38
-3.8178365 3.7005596 0.4311012 42
-5.522965 2.9635921 0.7647301 42
-3.1276369 3.0353463 0.78720319 37
-5.7980866 3.0799334 1.7449058 20
-5.6445165 2.9834862 0.03543698 15
-5.4728141 3.5712168 -0.0022671826 28
-4.4602418 3.532768 -0.032541487 37
-2.9952581 2.8497322 -0.047884632 26
-5.6898465 3.0099518 0.18428127 40
-5.9401169 3.8671856 0.16363609 25
-4.4862084 3.5470607 0.099129662 39
-2.9927702 2.852345 0.047884632 15
-3.7646949 1.9686332 -1.9652659 57
-5.8756242 3.087106 -1.7271749 19
-5.5773273 2.9591415 -0.87618679 14
-5.5698476 2.9477689 -0.59084833 11
-5.5751023 2.9480782 -0.40416908 9
-5.3228073 3.4615262 -0.44341215 31
nan nan nan 0
-2.9677896 2.8303483 -0.33177286 30
-5.5749555 2.9542181 -0.25729847 10
-5.3460474 3.4964838 -0.29825357 17
nan nan nan 0
-2.9481924 2.8243389 -0.23525132 23
-5.6088381 2.9634542 -0.11223795 13
-5.4313011 3.5401583 -0.14959356 32
-4.4720049 3.538353 -0.16509436 43
-2.9568875 2.8288164 -0.14151745 27
-2.9481108 2.8469391 -0.7361424 13
-2.9401393 2.8274524 -0.45453131 16
-2.899128 2.8082631 0.16261986 85
-5.5020523 2.9734499 0.36159 35
-3.8191452 3.7278032 0.43272954 42
-5.5213199 2.9875686 0.76594877 43
-3.1240492 3.0531309 0.7889964 36
-5.7404432 3.0751026 1.7306987 20
-5.5943403 2.9820383 0.035185654 19
-5.4853864 3.6067739 -0.0022776546 29
-3.9438105 3.14592 -0.028826574 31
-2.9708705 2.8463159 -0.047650762 23
-5.6837163 3.0321436 0.18442525 37
-5.9140406 3.8796747 0.16328794 28
nan nan nan 0
-2.9647827 2.8454401 0.047592293 24
-3.7537904 1.9796544 -1.9631503 48
-5.8861923 3.1189027 -1.7335062 26
-5.5407538 2.9645972 -0.87203747 12
-5.5331621 2.9531529 -0.58803028 7
-5.5295396 2.9487686 -0.40159476 8
-5.319037 3.4855499 -0.44411319 31
nan nan nan 0
-2.9471233 2.8303201 -0.33055162 28
-5.5425692 2.9619067 -0.25627336 18
-5.3421521 3.5206177 -0.29872289 18
-3.9246359 3.1350648 -0.26115641 37
-2.9239655 2.8207307 -0.23408958 23
-5.5543184 2.9595449 -0.11134787 12
-5.427268 3.5645814 -0.14982568 31
-3.9516418 3.1488581 -0.1461515 34
-2.9326193 2.8252332 -0.14081946 29
-2.9311104 2.850343 -0.73435777 13
-2.919558 2.8273134 -0.45285404 16
-2.8893075 2.8183661 0.16261986 49
-5.5135651 3.0045619 0.36304218 35
-3.8132095 3.7481062 0.43354368 42
-5.5108581 3.0068235 0.76594877 42
-3.1203749 3.0709276 0.79078948 38
-5.6829052 3.0699077 1.7164915 22
-5.5618663 2.9897306 0.03504603 34
-5.7896028 3.835691 -0.0024102996 26
-3.9367013 3.1627998 -0.028855368 30
-2.9429495 2.8392875 -0.047358427 26
-5.6819048 3.0566931 0.1847132 37
nan nan nan 0
-3.9466906 3.165247 0.087611079 32
-2.9404707 2.8418546 0.047358427 23
-3.7428541 1.9906235 -1.9610348 73
-5.8710017 3.1371543 -1.73224 25
-5.5085711 2.9721818 -0.86857975 38
-5.4921222 2.9559617 -0.58474255 9
-5.4796433 2.9468176 -0.39869863 17
-5.3151636 3.5095897 -0.44481423 29
-3.9149678 3.1430593 -0.37886527 36
-2.9300706 2.8336515 -0.32973745 32
-5.5101962 2.9694052 -0.25524825 13
-5.3298302 3.5392437 -0.29872289 30
-3.9214473 3.1550081 -0.26167977 38
-2.9033751 2.8204708 -0.2332183 27
-5.5351424 2.9741905 -0.11116986 14
-5.4356389 3.5972919 -0.15040594 30
-3.9406261 3.1626327 -0.1461515 35
-2.9084127 2.8215158 -0.14012147 30
-2.9141226 2.853663 -0.73257321 14
-2.9025664 2.8305395 -0.45173591 15
-2.8296254 2.7793503 0.15977401 48
-5.5030432 3.0237894 0.36304218 34
-3.807179 3.7684131 0.43435788 43
-5.5133786 3.0332072 0.76777679 44
-3.1166146 3.0887356 0.79258275 36
-5.6297169 3.0666554 1.7035757 18
-5.5557938 3.0115056 0.035073955 26
-5.7595415 3.8447773 -0.0024033182 25
-3.929523 3.1796691 -0.028884167 31
-2.9186957 2.8355882 -0.047124557 29
-5.6843858 3.0836465 0.18514511 41
-5.3708391 3.5774074 0.14889725 39
-3.951169 3.1915751 0.087960124 34
-2.9126422 2.8346426 0.047066096 25
-3.7318876 2.0015404 -1.9589195 62
-5.868535 3.1622107 -1.7347724 24
-5.4764037 2.9795778 -0.86512202 39
-5.4555078 2.9608905 -0.5819245 15
-5.4473825 2.9540539 -0.39708972 17
-5.315341 3.5364065 -0.44586578 30
-3.9194748 3.1692505 -0.38038227 37
-2.9094653 2.8334172 -0.32851622 31
-5.4778395 2.9767137 -0.25422317 35
-5.3340507 3.5689321 -0.29966152 20
-3.9181666 3.1749673 -0.26220313 40
-2.8828225 2.8201017 -0.232347 27
-5.4851489 2.9720936 -0.1103688 19
-5.4688048 3.6467361 -0.15168254 36
-3.9489913 3.192085 -0.14688008 37
-2.8842678 2.8176634 -0.13942347 30
-2.8971474 2.856899 -0.73078859 14
-2.8820477 2.8301954 -0.45005867 14
-2.770252 2.7399528 0.15692817 28
-5.5055594 3.0502264 0.36391348 37
nan nan nan 0
-5.5070992 3.0548377 0.76838619 43
-3.1162448 3.110034 0.79527247 39
-5.5723858 3.0607479 1.6893686 18
-5.5540271 3.0356693 0.035129804 31
-5.3145294 3.5747554 -0.0022218041 38
-3.941648 3.212327 -0.029056955 29
-2.8980727 2.8352556 -0.046949159 29
-5.6691999 3.1010749 0.18500113 33
-5.3209567 3.5710735 0.14785275 36
-3.9516354 3.2148166 0.088221908 35
-2.8884656 2.8307753 0.046832226 23
-3.7208903 2.0124052 -1.956804 65
-5.8744698 3.1918998 -1.7398375 17
-5.4529386 2.9915416 -0.86304742 38
-5.4189262 2.9656005 -0.57910651 15
-5.4151382 2.9611008 -0.39548075 30
-5.3195386 3.5660434 -0.44726789 30
-3.9161181 3.1892123 -0.38114077 38
-2.8888977 2.8330734 -0.32729498 32
-5.4367318 2.9790392 -0.25278804 30
-5.3671236 3.6182275 -0.30224282 32
-3.9147944 3.194942 -0.26272649 39
-2.8623075 2.8196237 -0.2314757 29
-5.474741 2.9912221 -0.1103688 17
nan nan nan 0
-3.9300752 3.1995363 -0.14658864 32
-2.8637428 2.8171866 -0.1389 32
-2.8801851 2.8600516 -0.72900409 12
-2.8650947 2.833241 -0.44894049 15
-2.7429984 2.7319524 0.15591179 27
-5.5035977 3.0742869 0.36449435 36
-2.8181264 2.8265195 0.32281706 42
-5.5050693 3.0788803 0.76960492 41
-3.1122992 3.1278756 0.79706562 39
-5.519392 3.0568142 1.6764529 20
-5.5477781 3.0574477 0.035157729 33
-5.3020191 3.5932848 -0.0022218041 38
-3.9304109 3.2260664 -0.029056955 29
-2.8739309 2.8313003 -0.046715289 30
-5.6495843 3.1160252 0.1847132 26
-5.3291669 3.6036196 0.14843303 35
-3.9403892 3.2285907 0.088221908 33
-2.8643515 2.8267736 0.046598356 21
-3.7098629 2.0232172 -1.9546884 51
-5.8760238 3.2193477 -1.7436363 25
-5.4251223 3.0009851 -0.86028123 40
-5.3867383 2.9724922 -0.57675815 20
-5.3741674 2.9631479 -0.3932282 17
-5.3277292 3.5985432 -0.4490205 33
-3.9088149 3.2060258 -0.38151997 36
-2.8719087 2.8361273 -0.32648078 33
-5.4044261 2.9859385 -0.25176296 15
-5.6395907 3.8304958 -0.31843439 18
-3.9151869 3.2181036 -0.26351154 37
-2.8453705 2.8225572 -0.23089482 28
-5.4730287 3.0151315 -0.11054681 16
-5.3065872 3.5923936 -0.14785275 37
-3.9343376 3.2259164 -0.1471715 28
-2.843256 2.8166008 -0.1383765 34
-2.8632362 2.8631208 -0.72721946 16
-2.8481557 2.8362031 -0.44782236 16
-2.7264013 2.7344244 0.15550523 34
-5.5015359 3.098371 0.3650752 38
-2.8047421 2.8327928 0.32240996 39
-5.5029378 3.1029456 0.77082354 43
-3.1082675 3.1457279 0.79885882 37
-5.4707141 3.0548997 1.6648288 17
-5.5458169 3.0816436 0.035213578 17
-5.289444 3.6117704 -0.0022218041 34
-3.9306829 3.2493274 -0.029143348 31
-2.8533971 2.8307369 -0.046539888 29
-5.6299329 3.1308763 0.18442525 28
-5.3289509 3.6306398 0.14878118 37
-3.9406595 3.2518754 0.088483691 35
-2.840301 2.8226383 0.046364486 22
-3.7067506 2.0383325 -1.956804 45
-5.8774581 3.2468455 -1.747435 32
-5.3929791 3.0078623 -0.8568235 40
-5.3458652 2.9743626 -0.57347041 31
-5.3507018 2.9746275 -0.39226285 30
-5.6450753 3.8415136 -0.4770624 21
-3.9052854 3.2260036 -0.3822785 37
-2.8514051 2.8355782 -0.32525954 31
-5.4070692 3.0120671 -0.25237799 17
-5.3788352 3.6809845 -0.30435473 48
-3.9116197 3.2381215 -0.2640349 37
-2.8249209 2.8218741 -0.23002352 31
-5.4580979 3.0317936 -0.1104578 26
-5.2733631 3.596818 -0.14727248 39
-3.9269059 3.2428141 -0.14731722 34
-2.8228085 2.8159065 -0.137853 33
-2.8463013 2.8661065 -0.7254349 13
-2.8312311 2.8390813 -0.44670418 15
-2.7028008 2.7297032 0.15469213 32
-5.499372 3.122478 0.36565608 41
-2.8018141 2.8496838 0.32322413 36
-5.4963894 3.1245847 0.77143294 43
-3.107589 3.1671054 0.80154854 38
-5.4179063 3.0503166 1.6519132 17
-5.5393896 3.1034234 0.035241503 25
-5.2726836 3.6273794 -0.0022200586 38
-3.9269996 3.2694292 -0.029200941 31
-2.8293693 2.8265259 -0.046306018 29
-5.6189699 3.1505094 0.18442525 17
-5.3162446 3.649219 0.14878118 38
-3.9369714 3.2720046 0.088658221 37
-2.8163145 2.8183699 0.046130616 23
-3.703578 2.0534506 -1.9589195 87
-5.8787718 3.2743926 -1.7512338 28
-5.378129 3.0242457 -0.85613197 39
-5.3267632 2.988142 -0.57253104 31
-5.3489952 2.9981585 -0.39290643 28
-5.5863729 3.8301828 -0.47320664 26
-3.9016638 3.245996 -0.38303697 36
-2.8344569 2.8384519 -0.32444537 29
-5.396522 3.0309229 -0.25237799 16
-5.073956 3.498528 -0.28769383 43
-3.9117944 3.2613525 -0.26481992 38
-2.8045111 2.8210831 -0.22915222 30
-5.4518456 3.0532668 -0.11054681 12
-5.2690163 3.6208632 -0.1475046 38
-3.9270866 3.266093 -0.14775436 35
-2.8059211 2.81865 -0.13750401 34
-2.82938 2.8690088 -0.72365028 13
-2.8143213 2.8418763 -0.44558603 14
-2.6792669 2.7248511 0.15387903 32
-5.497108 3.1466076 0.36623695 40
-2.7953255 2.8630171 0.3236312 36
-5.4940648 3.1486797 0.77265155 44
-3.1033711 3.184989 0.80334175 39
-5.3693995 3.0477831 1.6402891 17
-5.5328789 3.125196 0.035269432 13
-4.6845589 3.2471664 -0.0019757126 41
-3.9232235 3.2895448 -0.029258538 35
-2.8089263 2.8257332 -0.046130616 32
-5.6122918 3.17256 0.18456922 27
-4.7401175 3.2783942 0.13288179 47
-3.9370234 3.2953575 0.088920005 37
-2.7923925 2.8139684 0.04589675 25
-3.6963875 2.066366 -1.9589195 76
-5.8757448 3.2996233 -1.7537663 33
-5.3761597 3.0478776 -0.85751504 35
-5.3336406 3.0165043 -0.57440978 35
-5.3471894 3.0217135 -0.39355001 30
-5.080421 3.5096197 -0.43114385 42
-3.8979499 3.2660022 -0.38379547 34
-2.8140194 2.8376985 -0.32322413 28
-5.3902588 3.0521994 -0.25258303 19
-4.6350307 3.2199976 -0.26328912 33
-3.9080317 3.2814114 -0.26534328 35
-2.787643 2.823741 -0.22857136 28
-5.4498649 3.0771866 -0.11072482 20
nan nan nan 0
-3.9271531 3.2894135 -0.1481915 35
-2.7890491 2.8213103 -0.13715501 33
-2.812474 2.8718283 -0.72186571 8
-2.7974265 2.8445878 -0.44446787 16
-2.6557999 2.7198677 0.15306593 28
-5.4947419 3.1707597 0.36681783 42
-2.7783875 2.865591 0.32281706 36
-5.4873395 3.1703174 0.77326095 42
-3.0990658 3.2028816 0.80513489 38
-5.316783 3.0425532 1.6273733 16
-5.5219364 3.1444902 0.035269432 16
-4.6362934 3.2377455 -0.0019600047 38
-3.9193547 3.3096738 -0.029316133 29
-2.788523 2.824832 -0.045955215 33
-5.6055274 3.194602 0.1847132 29
nan nan nan 0
-3.9331391 3.3155272 0.089094535 36
-2.7720397 2.8130004 0.045721345 26
-3.6852024 2.0770369 -1.956804 35
-5.8726134 3.3248725 -1.7562989 20
-5.3740907 3.0715322 -0.85889816 29
-5.327405 3.0375657 -0.57487947 33
-5.3496218 3.0477583 -0.39451537 18
-4.6259165 3.2197506 -0.39328727 33
-3.8903348 3.2828054 -0.38417473 35
-2.7971134 2.8403926 -0.32240996 26
-5.3839126 3.0734694 -0.25278804 25
-4.6032996 3.2218447 -0.26211584 33
-3.9041767 3.3014843 -0.26586664 37
-2.7673016 2.8227465 -0.22770005 27
-5.4477844 3.1011302 -0.11090284 17
-4.6613173 3.2516484 -0.13102493 38
-3.9232848 3.3095493 -0.14848292 35
-2.772193 2.8238869 -0.13680601 35
-2.7990074 2.8780963 -0.72097343 31
-2.7805469 2.8472159 -0.44334972 14
-2.6358726 2.7183459 0.15245612 28
-5.4965901 3.1974392 0.36768913 41
-2.7373075 2.842917 0.31915328 37
-5.4848208 3.1944408 0.77447969 42
-3.0946739 3.220783 0.8069281 37
-5.2684555 3.0394032 1.6157492 16
-5.5152645 3.1662316 0.035297353 24
nan nan nan 0
-3.9153936 3.3298161 -0.02937373 34
-2.7681608 2.8238232 -0.045779817 33
-5.5986776 3.2166359 0.18485717 17
nan nan nan 0
-3.9291613 3.3357096 0.089269049 37
-2.7482367 2.8083467 0.045487478 27
-3.6779299 2.0898881 -1.956804 34
-5.8819866 3.3573234 -1.7626302 21
-5.3676286 3.0927408 -0.85958964 21
-5.3254051 3.0610969 -0.57581878 30
-5.3519382 3.0738575 -0.39548075 12
-4.5942264 3.2215674 -0.39153469 30
-3.8978412 3.3125148 -0.38607091 36
-2.7802231 2.8430033 -0.32159579 31
-5.3774838 3.0947323 -0.25299308 16
-4.6083565 3.2494009 -0.26305449 37
-3.9040289 3.3248088 -0.26665169 37
-2.7504778 2.8252258 -0.22711918 25
-5.4456019 3.1250966 -0.11108085 21
-4.6499386 3.2678995 -0.13102493 40
-3.9193239 3.3296986 -0.14877436 36
-2.7518699 2.8227978 -0.13628253 36
-2.7923565 2.8913927 -0.72186571 41
-2.7636833 2.849761 -0.44223154 14
-2.6125288 2.713114 0.15164302 27
-5.4940109 3.2216494 0.36826998 42
-2.7032979 2.8272054 0.31630373 25
-5.4821992 3.218585 0.7756983 43
-3.0901942 3.2386925 0.80872124 38
-5.2202153 3.0359538 1.6041253 17
-5.504179 3.1854644 0.035297353 29
-5.1154394 3.6255043 -0.0021746801 35
-3.9113386 3.3499703 -0.029431324 32
-2.7478397 2.8227067 -0.045604412 33
-5.5960693 3.2411613 0.18514511 18
-5.142313 3.6365416 0.14529957 32
-3.9212925 3.3526549 0.089356318 35
-2.7279787 2.8071516 0.045312077 27
-3.6666782 2.100467 -1.9546884 56
-5.8912029 3.3898797 -1.7689614 22
-5.3610845 3.1139421 -0.86028123 17
-5.3189964 3.0821593 -0.57628846 30
-5.3584561 3.1025057 -0.39676791 15
-4.5911016 3.2433372 -0.39223573 32
-3.8938277 3.332587 -0.38682941 32
-2.7633486 2.845531 -0.32078162 31
-5.3752952 3.1184907 -0.2534031 14
nan nan nan 0
-3.8961885 3.3416681 -0.26691335 36
-2.7302065 2.8240287 -0.22624789 24
-5.4433193 3.1490853 -0.11125886 21
nan nan nan 0
-3.9152701 3.34986 -0.14906578 35
-2.7350583 2.825196 -0.13593353 35
-2.7822466 2.9011223 -0.72186571 64
-2.7468359 2.8522232 -0.44111338 12
-2.5927007 2.7113688 0.15103319 35
-5.4913301 3.2458804 0.36885086 41
-2.6762829 2.8185294 0.31426829 33
-5.4794774 3.2427499 0.77691704 41
-3.0856276 3.2566099 0.81051445 38
-5.1678939 3.0297649 1.5912095 16
-5.4930258 3.204658 0.035297353 24
-5.0742621 3.6230085 -0.0021624628 37
-3.9071915 3.3701375 -0.029488921 32
-2.7310302 2.8250823 -0.045487478 34
-5.5890398 3.2631919 0.18528907 32
-5.1010833 3.6341751 0.14448719 36
-3.9171402 3.372849 0.089530841 35
-2.707763 2.8058493 0.045136675 25
-3.66325 2.1155138 -1.956804 65
-5.9253807 3.437083 -1.7828903 29
-5.3501821 3.132637 -0.86028123 35
-5.3168063 3.1057215 -0.57722783 26
-5.3605285 3.1287253 -0.39773327 34
-5.0593758 3.600446 -0.43359751 46
nan nan nan 0
-2.7464907 2.8479757 -0.31996745 27
-5.3773208 3.1447897 -0.25401813 13
-5.0486889 3.6126957 -0.28980577 36
-3.8996103 3.3683088 -0.26796007 37
-2.7134287 2.8263302 -0.22566701 25
-5.4366145 3.1705813 -0.11134787 32
-5.1113997 3.6455383 -0.14483535 37
-3.9149084 3.3732977 -0.14950293 35
-2.7148061 2.8239045 -0.13541004 36
-2.7754905 2.9143839 -0.72275794 45
-2.733434 2.8581982 -0.44055429 9
-2.5729172 2.7095182 0.15042336 33
-5.4928374 3.2726831 0.36972216 40
-2.6561882 2.8169613 0.31304705 24
-5.4723892 3.264396 0.77752632 40
-3.0809729 3.2745347 0.8123076 38
-5.1198401 3.025702 1.5795854 16
-5.4904304 3.2288744 0.035353206 25
-5.0128655 3.6056781 -0.0021415188 36
-3.9029508 3.3903162 -0.029546518 32
-2.7107801 2.8237634 -0.045312077 34
-5.5862336 3.287744 0.18557701 24
-5.0477476 3.6228251 0.14332664 35
-3.9128942 3.3930545 0.089705363 34
-2.6875899 2.8044405 0.044961274 30
-3.6597617 2.1305621 -1.9589195 45
-5.955122 3.4821274 -1.7955528 20
-5.3392153 3.1512935 -0.86028123 34
-5.3145165 3.1293054 -0.57816714 38
-5.3366671 3.1398387 -0.39676791 16
-5.0792131 3.6413238 -0.43640167 38
nan nan nan 0
-2.7296493 2.850337 -0.31915328 30
-5.3792281 3.1711409 -0.25463322 17
-4.9995761 3.6040215 -0.28769383 34
-3.8991268 3.3917358 -0.26874512 40
-2.6966679 2.8285494 -0.22508615 28
-5.4298258 3.1920693 -0.11143688 17
-5.0661607 3.6400344 -0.14390692 36
-3.9106569 3.3934968 -0.14979436 37
-2.6945963 2.822506 -0.13488655 36
-2.7585502 2.9168961 -0.72097343 36
-2.7234404 2.8677223 -0.44055429 37
-2.5531778 2.7075629 0.14981355 39
-5.4899426 3.2969694 0.37030303 40
-2.6361372 2.8152874 0.31182581 27
-5.469471 3.2885859 0.77874506 42
-3.076231 3.2924669 0.8141008 39
-5.0677271 3.0188727 1.5666698 17
-5.4877319 3.2531116 0.035409056 23
-4.9719009 3.6026261 -0.0021293017 36
-3.8986161 3.4105058 -0.029604111 33
-2.6940174 2.8259616 -0.045195144 34
-5.587625 3.3148632 0.18600893 26
-5.0107613 3.6228578 0.14263032 35
-3.9085553 3.4132719 0.089879893 36
-2.6674592 2.8029251 0.044785872 32
-3.6562126 2.1456118 -1.9610348 30
-6.0012965 3.5372329 -1.8132805 28
-5.3281822 3.1699116 -0.86028123 35
-5.3078437 3.1503744 -0.57863683 27
-5.3213801 3.1559067 -0.39644611 17
-4.9936733 3.6064892 -0.43009225 37
-3.318373 2.9004779 -0.33221823 35
-2.7128248 2.8526158 -0.31833914 29
-5.393908 3.2051883 -0.25586331 33
-4.9627123 3.6038504 -0.28628588 35
nan nan nan 0
-2.679925 2.8306856 -0.22450529 28
-5.4229531 3.2135484 -0.11152589 17
-5.0169725 3.6313291 -0.14286242 37
-3.910074 3.4169967 -0.1502315 36
-2.6744292 2.8210008 -0.13436306 33
-2.7248118 2.90137 -0.7147274 31
-2.7168174 2.880831 -0.44111338 40
-2.533484 2.7055025 0.14920372 37
-5.4912176 3.3238564 0.37117431 42
-2.6127427 2.8098533 0.31019747 29
-5.4664507 3.3127949 0.77996373 40
-3.0747418 3.3140159 0.81679052 36
-5.0281539 3.0191648 1.5576288 25
-5.4849319 3.2773697 0.035464905 19
-4.918901 3.5904922 -0.0021118482 34
-3.8979387 3.4340134 -0.029690504 34
-2.6738403 2.8244412 -0.045019742 34
-5.5974784 3.3471541 0.18672876 22
-4.9576697 3.6109099 0.14146978 33
-3.9078755 3.4368026 0.090141676 36
-2.6508014 2.8049419 0.044668939 33
-3.6565053 2.1629643 -1.9652659 33
-6.0846014 3.6149075 -1.8424042 26
-5.3213339 3.1910343 -0.86097276 27
-5.3010893 3.1714351 -0.57910651 17
-5.3017616 3.1693499 -0.39580256 17
-4.9608831 3.6092327 -0.42833963 38
-3.2857831 2.8922694 -0.32994273 20
-2.6994345 2.8584402 -0.31793204 26
-5.3826871 3.2239971 -0.25586331 32
-4.9057517 3.5887275 -0.28370461 35
-3.2652268 2.8802176 -0.22609131 30
-2.6632006 2.8327398 -0.22392441 24
-5.4159975 3.2350185 -0.1116149 23
-4.9679074 3.6223257 -0.14181794 39
-3.9056239 3.4372311 -0.15052293 37
-2.6577258 2.8230326 -0.13401406 32
-2.6979165 2.8928499 -0.71026587 27
-2.7101359 2.8939283 -0.44167244 46
-2.5138354 2.7033381 0.14859389 38
-5.4881082 3.3481965 0.37175518 40
-2.5894184 2.8042903 0.30856913 34
-5.4633284 3.3370233 0.78118247 40
-3.0698116 3.3319726 0.81858373 37
-4.9721031 3.0092292 1.5434216 27
-5.4820294 3.3016474 0.035520755 28
nan nan nan 0
-3.8896673 3.4509182 -0.029719302 30
-2.653707 2.8228145 -0.044844337 34
-5.6071744 3.3795547 0.18744862 33
nan nan nan 0
-3.9033377 3.4570544 0.090316191 34
-2.6307459 2.8032258 0.044493534 32
-3.6489327 2.1757145 -1.9652659 49
-6.1757407 3.6981707 -1.8740608 44
-5.3144031 3.2121475 -0.86166435 31
-5.2942514 3.192487 -0.57957619 15
-5.2949419 3.1904082 -0.39612433 16
nan nan nan 0
-3.25702 2.8871772 -0.3280465 15
-2.6826329 2.8605659 -0.3171179 22
-5.3671212 3.2401881 -0.2556583 26
-4.3703885 3.2208061 -0.25319874 56
-3.2476902 2.8849628 -0.22556797 36
-2.649895 2.8383651 -0.22363397 25
-5.4132419 3.2590532 -0.11179291 23
nan nan nan 0
nan nan nan 0
-2.6376333 2.8213272 -0.13349056 32
-2.6644385 2.8769488 -0.70401984 28
-2.7000177 2.9033709 -0.44167244 39
-2.4942334 2.7010696 0.14798407 37
-5.48915 3.3751664 0.37262648 41
-2.566165 2.7985992 0.30694079 36
-5.4643316 3.363868 0.78301048 42
-3.0647931 3.3499348 0.82037687 40
-4.8996792 2.9888926 1.5240481 25
-5.4832993 3.3285358 0.035604533 17
-4.2989378 3.1844726 -0.0018535396 37
-3.8813252 3.4678075 -0.029748101 33
-2.6336176 2.8210821 -0.044668939 33
-5.6209855 3.4146545 0.18831244 36
-4.3171592 3.1910527 0.12371353 38
-3.9024358 3.4806457 0.09057799 37
-2.6141379 2.8050668 0.044376601 31
-3.6374297 2.1861098 -1.9631503 34
-6.2373691 3.7646389 -1.8968534 39
-5.3116202 3.2358236 -0.86304742 26
-5.2873311 3.2135296 -0.58004582 17
-5.2923074 3.2140443 -0.39676791 17
-4.3014274 3.175909 -0.37295693 42
-3.228333 2.8819201 -0.32615027 14
-2.66924 2.8662608 -0.3167108 10
-5.3600478 3.2614963 -0.25586331 13
-4.2788949 3.1765273 -0.24850553 40
-3.2227201 2.8829587 -0.22452125 32
-2.6331944 2.8402669 -0.22305311 25
-5.4103856 3.2831087 -0.11197092 19
-4.3275542 3.2022176 -0.12406169 40
nan nan nan 0
-2.6209803 2.8231831 -0.13314156 34
-2.6444049 2.8753538 -0.70134294 42
-2.6898665 2.9127779 -0.44167244 37
-2.4780483 2.7023849 0.14757752 38
-5.4858251 3.3995585 0.37320736 40
-2.5463319 2.7964697 0.30571955 34
-5.4609942 3.3881476 0.78422922 40
-3.0629895 3.3715479 0.82306659 40
-4.8027549 2.9529319 1.4969252 22
-5.4844489 3.355473 0.035688307 18
-4.3679628 3.2592359 -0.0018884462 96
-3.8617651 3.4746435 -0.029690504 40
-2.6169667 2.8229151 -0.044552002 35
-5.5962377 3.4264359 0.18788052 29
-4.3781815 3.2598121 0.1258025 86
-3.9051347 3.5076139 0.090927035 37
-2.5975494 2.8068264 0.044259667 33
-3.6258986 2.1964514 -1.9610348 72
-6.2159214 3.7813668 -1.894321 43
-5.3087373 3.2595198 -0.86443055 25
-5.2845759 3.237159 -0.58098519 18
-5.2895718 3.2377002 -0.3974115 21
-4.2622929 3.1700783 -0.37050328 39
-3.1960163 2.8731632 -0.32387483 15
-2.6558404 2.8718972 -0.31630373 31
-5.3486304 3.2801867 -0.25586331 13
-4.335794 3.2422693 -0.25249478 85
-3.1978037 2.8808157 -0.22347453 34
-2.6198885 2.8457639 -0.22276267 22
-5.4074259 3.3071837 -0.11214893 15
-4.3724742 3.2591071 -0.12568645 62
-3.2042704 2.8796721 -0.12444006 29
-2.6043463 2.8249571 -0.13279258 35
-2.6310396 2.8809292 -0.70045066 66
-2.6495066 2.8891487 -0.43664077 31
-2.4585268 2.6999209 0.14696769 37
-5.4866323 3.426609 0.37407866 41
-2.5265455 2.7942362 0.30449831 31
-5.4617643 3.415072 0.78605723 40
-3.0577824 3.3895326 0.8248598 39
-4.7102509 2.9188716 1.4710938 23
-5.485477 3.3824587 0.035772081 18
-4.7603474 3.5777454 -0.0020647245 34
nan nan nan 0
-2.5969543 2.8209834 -0.044376601 35
-5.5884986 3.4485707 0.18802449 25
-4.7827721 3.5868461 0.13787211 35
-3.9039862 3.5312884 0.091188818 38
-2.5776029 2.8048179 0.044084266 34
-3.6143398 2.2067389 -1.9589195 60
-6.2191863 3.8131423 -1.8993859 36
-5.309967 3.2858372 -0.86650515 35
-5.2817197 3.2608087 -0.5819245 15
-5.2909846 3.2639928 -0.39837688 23
-4.2671728 3.1968939 -0.37190536 40
-3.1674953 2.8675635 -0.3219786 17
-2.6457994 2.8811502 -0.31630373 38
-5.3456526 3.3040829 -0.25627336 15
-4.6955523 3.5367255 -0.27431819 35
-3.1618524 2.8684647 -0.22164278 29
-2.603214 2.8475137 -0.22218181 20
-5.4043651 3.3312783 -0.11232695 22
-4.7849007 3.5923388 -0.13798817 38
-3.175678 2.8740635 -0.12371149 25
-2.5877316 2.8266497 -0.13244358 34
-2.6143682 2.8827975 -0.69866604 45
-2.6126845 2.868952 -0.43216813 25
-2.4423978 2.7010646 0.14656115 42
-5.487318 3.4537065 0.37494996 40
-2.5101295 2.7956119 0.30368415 29
-5.4582119 3.4394014 0.78727597 39
-3.0524871 3.407522 0.826653 40
-4.6303425 2.8918664 1.4491372 21
-5.4863839 3.4094927 0.03585586 27
-4.7119431 3.5671899 -0.0020490165 33
nan nan nan 0
-2.5803552 2.8226414 -0.044259667 35
-5.5806732 3.4706931 0.18816847 16
-4.7462854 3.585449 0.13717578 34
-3.8953304 3.5482626 0.091276079 39
-2.5610669 2.8064027 0.043967333 34
-3.6066148 2.219342 -1.9589195 58
-6.2181888 3.8424468 -1.9031848 41
-5.3110762 3.3122027 -0.86857975 28
-5.2787633 3.2844777 -0.58286387 18
-5.2880387 3.2877035 -0.39902043 19
-4.6701465 3.5240877 -0.4083598 50
-3.1390522 2.8618 -0.32008237 16
-2.6357262 2.8903682 -0.31630373 37
-5.3468142 3.3306355 -0.25688842 17
-4.6553202 3.5319715 -0.27267557 36
-3.1297109 2.8592672 -0.22007269 26
-2.5865588 2.8491819 -0.22160093 11
-5.4054503 3.3580258 -0.11259397 17
-4.7563801 3.5969639 -0.13752395 38
-3.1545486 2.8750267 -0.12327435 19
-2.5711372 2.8282604 -0.13209459 33
-2.5977156 2.8845844 -0.69688147 43
-2.5693815 2.8411534 -0.42657733 31
-2.4262908 2.7021284 0.1461546 44
-5.4878807 3.4808502 0.37582126 41
-2.4904239 2.7931821 0.30246288 28
-5.4587479 3.466404 0.78910398 41
-3.0503671 3.4291949 0.82934278 41
-4.5547714 2.8669083 1.4284722 20
-5.4829283 3.4339232 0.035911709 21
-4.6795783 3.5684626 -0.0020402898 33
-3.1369281 2.8820238 -0.024305321 31
-2.5637763 2.824218 -0.044142731 33
-5.5812354 3.4981041 0.18860038 19
-4.7058887 3.5808151 0.13636342 33
-3.8829212 3.5618382 0.091276079 43
-2.5411992 2.8041964 0.043791931 35
-3.6026993 2.2343006 -1.9610348 68
-6.1800909 3.8488054 -1.8955871 39
-5.3162618 3.3412478 -0.87134594 32
-5.2757049 3.3081656 -0.58380318 25
-5.2892218 3.314079 -0.39998579 15
-4.693563 3.5675206 -0.41151452 37
-3.1143591 2.8592467 -0.3185654 15
-2.6289606 2.9032497 -0.3167108 39
-5.3436227 3.3545842 -0.25729847 14
-4.6270852 3.5360744 -0.27173692 37
-3.0976727 2.8498807 -0.2185026 18
-2.5699241 2.8507686 -0.22102007 12
-5.406414 3.3848214 -0.11286099 16
-4.7119761 3.589323 -0.13659552 38
-3.1260903 2.8691156 -0.12254577 16
-2.5579059 2.8335042 -0.1319201 31
-2.5778086 2.882618 -0.69420457 40
-2.5428767 2.8315966 -0.42378193 35
-2.4068871 2.6993787 0.14554477 44
-5.4883208 3.50804 0.37669256 39
-2.4740636 2.7943857 0.30164871 27
-5.4591613 3.4934518 0.790932 42
-3.0448821 3.4472036 0.83113587 41
-4.4957581 2.8517914 1.4129734 23
-5.4835997 3.4610364 0.035995483 18
-4.6393299 3.5634644 -0.0020280725 33
-3.1158433 2.8827651 -0.024218928 34
-2.5472178 2.8257129 -0.044025797 33
-5.5901303 3.5308926 0.18932022 25
-4.6576452 3.569864 0.13531892 32
nan nan nan 0
-2.5247173 2.8056071 0.043674994 35
-3.594878 2.2468629 -1.9610348 73
-6.1625199 3.8677862 -1.894321 34
-5.3171239 3.367723 -0.8734206 34
-5.2767568 3.3345275 -0.58521223 18
-5.2902846 3.3405025 -0.40095121 15
-4.6454306 3.5566053 -0.4083598 36
-3.0860631 2.8531697 -0.31666917 17
-2.6188104 2.9124088 -0.3167108 39
-5.3445525 3.3812184 -0.2579135 13
-4.6067963 3.5461135 -0.27126759 38
-3.0657384 2.8403058 -0.21693254 16
-2.5499864 2.8485501 -0.22014877 31
-5.4072576 3.4116645 -0.11312801 16
-4.6716518 3.5844579 -0.13578314 39
-3.0940428 2.8596468 -0.12167148 22
-2.5413399 2.8349643 -0.1315711 33
-2.5546861 2.8768649 -0.69063538 43
-2.5362785 2.8441687 -0.42434102 33
-2.3908384 2.7002723 0.14513822 43
-5.4886379 3.5352755 0.37756386 41
-2.4544406 2.7917609 0.30042747 28
-5.4594522 3.520545 0.79276001 43
-3.0393081 3.4652157 0.83292913 41
-4.4531965 2.8466873 1.4026408 21
-5.4799275 3.4855165 0.036051333 27
-4.5991735 3.5582287 -0.0020158552 34
-3.0947914 2.8833938 -0.024132535 33
-2.5273516 2.8233974 -0.0438504 33
-5.5988631 3.5637856 0.19004008 29
-4.6134939 3.5616736 0.13439049 33
nan nan nan 0
-2.5049307 2.8032041 0.043499596 34
-3.5946863 2.2642164 -1.9652659 76
-6.1367106 3.881526 -1.8905221 40
-5.322042 3.3969057 -0.87618679 39
-5.2860899 3.3662775 -0.58756059 23
-5.2912283 3.3669739 -0.40191656 19
-4.58953 3.539309 -0.40450406 37
-3.057848 2.8469305 -0.31477296 18
-2.6020007 2.9140885 -0.31589663 37
-5.3411465 3.4052179 -0.25832352 21
-4.5825462 3.5529954 -0.27056363 36
-3.0375586 2.8339505 -0.21562412 17
-2.5433383 2.8611693 -0.22043921 31
-5.4079781 3.4385548 -0.11339504 17
-4.6274619 3.5762997 -0.1348547 38
-3.0657573 2.8533969 -0.12094292 26
-2.5281115 2.8400805 -0.13139659 32
-2.5446284 2.8857648 -0.69063538 37
-2.5263348 2.8530047 -0.42434102 47
-2.3715198 2.6973298 0.14452839 47
-5.488831 3.5625548 0.37843516 39
-2.4348667 2.7890337 0.29920623 32
-5.459621 3.547683 0.79458809 41
-3.0400972 3.4906578 0.83651543 40
-4.4107256 2.8413215 1.3923084 24
-5.47615 3.5100129 0.036107183 27
-4.5591111 3.5527561 -0.0020036378 34
-3.0555496 2.8667979 -0.023902154 27
-2.5108483 2.8247192 -0.043733463 32
-5.5905986 3.5860023 0.19018406 19
-4.5812984 3.5624204 0.13381022 33
-3.0612454 2.8672116 0.072514743 26
-2.4885049 2.8044417 0.04338266 34
-3.5867605 2.2767506 -1.9652659 54
-6.1149631 3.8977306 -1.8879896 27
-5.3184857 3.4208126 -0.87756985 37
-5.2868829 3.3927639 -0.58896965 15
-5.2920508 3.3934925 -0.40288192 31
-4.5653281 3.5461326 -0.40345246 38
-3.0333495 2.8439407 -0.313256 20
-2.5654063 2.8932855 -0.31263995 38
-5.3418441 3.4319315 -0.25893861 15
-4.5386176 3.5443871 -0.26868632 37
-3.0130975 2.8308539 -0.21457741 19
-2.5399306 2.8775241 -0.22102007 33
-5.408577 3.4654915 -0.11366206 15
-4.5833869 3.5678773 -0.13392627 39
-3.0375531 2.8469841 -0.12021434 20
-2.5115745 2.8413906 -0.13104761 32
-2.5345397 2.8946295 -0.69063538 34
-2.5163605 2.8618057 -0.42434102 69
-2.355531 2.6980543 0.14412184 44
-5.4847207 3.5871503 0.37901601 39
-2.4153416 2.7862039 0.29798496 32
-5.4555116 3.5721495 0.79580677 40
-3.0375326 3.5124226 0.83920521 40
-4.3724008 2.8383195 1.3832674 25
-5.4722695 3.5345254 0.036163032 16
-4.5034065 3.5347042 -0.0019844393 34
-3.0237269 2.8568339 -0.023729365 22
-2.4943664 2.8259599 -0.04361653 31
nan nan nan 0
-4.5373445 3.5537429 0.13288179 34
-3.0475836 2.8744483 0.072427489 26
-2.472101 2.8055992 0.043265723 34
-3.5787916 2.2892568 -1.9652659 40
-6.1176066 3.9294956 -1.8930546 30
-5.3189859 3.4474258 -0.87964445 36
-5.3084664 3.4327936 -0.59272701 36
-5.2927527 3.420058 -0.40384731 18
-4.5214872 3.5374701 -0.40064827 36
-3.0089095 2.8408144 -0.31173903 18
-2.5388525 2.8834977 -0.31060454 38
-5.3424196 3.4586911 -0.25955364 23
nan nan nan 0
-2.9850702 2.824188 -0.21326901 20
-2.5364399 2.8938894 -0.22160093 37
-5.404851 3.4897661 -0.11384007 15
-4.5512309 3.5684395 -0.13334601 39
-3.0094311 2.8404093 -0.11948577 19
-2.4950595 2.8426194 -0.13069861 31
-2.5340874 2.9146118 -0.69331229 37
-2.5030937 2.8668244 -0.42378193 44
-2.3362997 2.6949198 0.14351203 44
-5.4805064 3.6117611 0.37959689 39
-2.3958662 2.7832718 0.29676372 34
-5.4554429 3.59936 0.79763484 41
-2.9900548 3.4819088 0.82934278 44
-4.3341508 2.8350849 1.3742263 26
-5.4808621 3.567225 0.03630266 23
-4.4596539 3.5256059 -0.0019704767 37
-2.9920115 2.8466828 -0.023556577 18
-2.4779069 2.8271201 -0.043499596 32
-5.934164 3.8646793 0.2028534 18
-4.4974337 3.5478971 0.13206942 33
-3.0194147 2.867847 0.071991175 21
-2.4557188 2.8066761 0.04314879 33
-3.5707786 2.3017352 -1.9652659 58
-6.1079154 3.9534514 -1.894321 39
-5.3152165 3.4713802 -0.88102758 23
-5.2881055 3.4458747 -0.59178764 21
-5.2891493 3.4439499 -0.40449089 22
-4.4895191 3.5378027 -0.39889568 38
-2.9845281 2.8375521 -0.310222 23
-2.5058494 2.8660474 -0.30775496 36
-5.3470597 3.4882226 -0.26037374 16
-4.4197845 3.5015798 -0.26305449 43
-2.9607396 2.820807 -0.21222229 22
-2.5295944 2.906496 -0.22189137 39
-5.4010224 3.5140567 -0.11401808 24
nan nan nan 0
-2.9850135 2.8371181 -0.11890291 18
-2.4785662 2.8437679 -0.13034961 28
-2.5271075 2.9271681 -0.69420457 55
-2.4898217 2.8717854 -0.42322284 42
-2.3171189 2.691684 0.1429022 44
-5.4803467 3.639143 0.38046819 41
-2.3796725 2.7840312 0.29594955 35
-5.4511156 3.6238694 0.79885352 39
-2.9428282 3.4511068 0.81948024 42
-4.2959776 2.8316183 1.3651854 27
-5.4934764 3.602766 0.036470208 29
nan nan nan 0
-2.9604039 2.8363459 -0.023383792 17
-2.4581931 2.824424 -0.043324191 32
-5.8955536 3.8689365 0.20198956 28
nan nan nan 0
-2.99494 2.8645408 0.071642123 18
-2.4393601 2.8076732 0.043031856 35
-3.5627224 2.3141854 -1.9652659 47
-6.1021857 3.9800265 -1.8968534 39
-5.319622 3.5007873 -0.88379377 33
-5.2843723 3.4697697 -0.59272701 19
-5.289618 3.4705923 -0.40545624 18
-4.4380651 3.5224576 -0.39539042 42
-2.9602065 2.8341548 -0.30870503 24
-2.466476 2.8408663 -0.30409122 36
-5.3599129 3.5233097 -0.26160383 16
-3.9037988 3.1152909 -0.23278327 39
-2.9364693 2.8172908 -0.21117558 20
-2.5129168 2.9077454 -0.22131051 38
-5.4054556 3.5438375 -0.11437411 14
-3.9744647 3.1615639 -0.1169824 52
-2.9570463 2.8302336 -0.11817434 21
-2.462096 2.844836 -0.13000062 12
-2.5232673 2.9434514 -0.69598913 60
-2.47331 2.8729184 -0.42210469 43
-2.2979894 2.6883473 0.14229238 41
-5.4717617 3.6610234 0.38075864 42
-2.3602841 2.7809072 0.29472831 35
-5.450809 3.6511514 0.80068153 40
-2.9466319 3.480149 0.82396322 45
-4.2578816 2.8279202 1.3561445 28
-5.8272843 3.8504264 0.038787995 26
-3.9160182 3.1407771 -0.0017383479 32
-2.9325023 2.8292961 -0.023239803 16
-2.4417918 2.8254123 -0.043207258 31
-5.8611569 3.875725 0.20126972 32
-3.9338272 3.1483772 0.11605397 35
-2.9669268 2.8576295 0.071205817 19
-2.4230242 2.8085902 0.04291492 35
-3.5584168 2.3290834 -1.9673814 51
-6.1003876 4.0092635 -1.9006522 17
-5.3156285 3.5248015 -0.88517678 36
-5.276382 3.4909377 -0.59319669 22
-5.2941294 3.5000279 -0.40674341 17
-3.9074543 3.1238878 -0.34877083 39
-2.9359453 2.8306227 -0.30718806 21
-2.4435511 2.8343415 -0.30246288 39
-5.3767538 3.5612843 -0.26303896 16
-3.8967946 3.1320262 -0.23301792 37
-2.9158497 2.8171108 -0.21039054 25
-2.4897714 2.9013283 -0.22014877 36
-5.3972263 3.5654368 -0.11446312 14
-3.9516981 3.1660461 -0.11663424 39
-2.932761 2.8266587 -0.11759149 22
-2.4423966 2.8420289 -0.12947713 16
-2.5161605 2.9559922 -0.69688147 66
-2.456821 2.8739712 -0.42098653 34
-2.2821381 2.6887243 0.14188583 37
-5.4713721 3.688462 0.38162991 41
-2.3409469 2.7776818 0.29350707 35
-5.4421463 3.6729286 0.80129087 40
-2.9060214 3.4564905 0.81589389 43
-4.2238812 2.8266728 1.3483951 27
-5.7846594 3.8513703 0.038592517 16
-3.9089215 3.157568 -0.0017400931 35
-2.9082699 2.825572 -0.023124613 16
-2.4254138 2.8263209 -0.043090325 32
-5.8267851 3.8823206 0.20054986 31
-3.9267058 3.1652253 0.11617003 34
-2.9389987 2.8505578 0.070769504 23
-2.4067113 2.8094273 0.042797986 34
-3.5464797 2.3390012 -1.9652659 42
-6.0702162 4.0198627 -1.8955871 15
-5.3156514 3.5515776 -0.8872515 34
-5.2724524 3.5148497 -0.594136 27
-5.2985001 3.5295372 -0.40803057 19
-3.8926401 3.1343818 -0.34842029 37
-2.9153206 2.8304303 -0.30605033 26
-2.4336424 2.842854 -0.30246288 41
nan nan nan 0
-3.8974874 3.1550331 -0.23372193 38
-2.8916891 2.8133378 -0.20934382 25
-2.4634695 2.890981 -0.21869661 37
-5.4097314 3.6008544 -0.11499716 16
-3.9367313 3.1766834 -0.11651818 39
-2.9049518 2.8194661 -0.11686291 25
-2.4259853 2.8429253 -0.12912813 33
-2.508997 2.9685194 -0.69777375 62
-2.437145 2.8711514 -0.41930932 43
-2.2630987 2.6851978 0.141276 38
-5.4832511 3.7243459 0.38337255 39
-2.321661 2.7743552 0.2922858 35
-5.4539285 3.7086267 0.80494702 37
-2.9663277 3.5535593 0.83651543 45
-4.1859345 2.8225262 1.3393542 26
nan nan nan 0
-3.9095149 3.1806555 -0.0017453292 33
-2.8841 2.8217134 -0.023009421 17
-2.4122963 2.8309596 -0.043031856 32
-5.7301631 3.8469863 0.19767047 33
-3.9350429 3.194658 0.11675029 35
-2.914731 2.8468206 0.070420451 30
-2.3904226 2.810185 0.042681053 35
-3.5420699 2.353869 -1.9673814 42
-6.0440707 4.0329823 -1.8917884 30
-5.3196621 3.5811586 -0.89001763 36
-5.27669 3.5443211 -0.59601468 30
-5.2944384 3.5535657 -0.40867418 22
-3.8894255 3.1542311 -0.34912136 36
-2.894733 2.8301284 -0.3049126 27
-2.4269261 2.8551335 -0.30286998 41
-5.7416754 3.8604498 -0.28231072 12
-3.8980665 3.1780822 -0.2344259 38
-2.8711562 2.8129265 -0.20855878 28
-2.4404891 2.8843012 -0.21753487 36
nan nan nan 0
-3.9372594 3.1998589 -0.11686634 39
-2.8808017 2.8156095 -0.11628006 26
-2.4095976 2.8437419 -0.12877913 37
-2.4954627 2.9734862 -0.69688147 56
-2.4175184 2.8682292 -0.41763207 38
-2.2473121 2.6854079 0.14086945 40
-5.4660964 3.7406478 0.38308209 40
-2.3024268 2.7709279 0.29106453 36
-5.449142 3.7332454 0.80616564 36
-3.0040514 3.6245511 0.85086083 40
-4.1520658 2.8208597 1.3316047 24
-5.2851424 3.5728433 0.035409056 34
-3.9061255 3.2006178 -0.0017488198 32
-2.8599927 2.8177209 -0.02289423 19
-2.3959522 2.8317196 -0.04291492 32
-5.7415524 3.8837471 0.19853429 37
-3.9316096 3.2147 0.1169824 33
-2.8869624 2.8394418 0.069984145 25
-2.3741577 2.8108635 0.042564116 34
-3.5338318 2.3662188 -1.9673814 32
-6.0138912 4.043273 -1.8867234 28
nan nan nan 0
-5.2766604 3.5710776 -0.59742373 24
nan nan nan 0
-3.897712 3.183557 -0.35087398 38
-2.8741832 2.8297176 -0.30377489 26
-2.416945 2.8635876 -0.30286998 38
-5.670229 3.8412871 -0.27944046 14
-3.8946717 3.1980059 -0.23489523 37
-2.8506613 2.8124061 -0.20777375 32
-2.4175856 2.8774962 -0.21637313 37
-5.243547 3.5434852 -0.11197092 36
-3.9338048 3.2199128 -0.11709846 39
-2.856714 2.8116186 -0.1156972 28
-2.4028676 2.8559639 -0.12895364 36
-2.4819243 2.9783947 -0.69598913 51
-2.3979425 2.8652053 -0.41595486 41
-2.2315516 2.6855407 0.14046291 42
nan nan nan 0
-2.2864101 2.7712495 0.29025036 37
-5.4442511 3.7578757 0.80738437 36
-3.0007434 3.6464214 0.85355055 39
-4.1142716 2.8162675 1.3225638 28
-5.2891779 3.6025145 0.035520755 35
-3.9026451 3.2205956 -0.0017523105 34
-2.8359487 2.8135943 -0.02277904 21
-2.3796322 2.8324003 -0.042797986 33
-5.7155638 3.8953304 0.19810237 37
-3.9280839 3.2347565 0.1172145 36
-2.8628318 2.8354239 0.069635101 23
-2.3579175 2.8114624 0.042447183 34
-3.5255508 2.3785398 -1.9673814 22
-5.9957342 4.0615306 -1.885457 17
-5.6504316 3.8609874 -0.95018202 21
nan nan nan 0
-5.6490793 3.8485954 -0.43827891 12
-3.8904288 3.2003105 -0.35122448 39
-2.8572099 2.8327093 -0.30301636 29
-2.4133253 2.8796554 -0.30368415 37
-5.1943946 3.545989 -0.25647837 28
-3.8911848 3.2179446 -0.23536454 37
-2.8337457 2.8152978 -0.20725037 32
-2.3947592 2.8705666 -0.21521141 36
-5.2435498 3.5701969 -0.11223795 39
-3.9302573 3.2399807 -0.11733056 39
-2.8326893 2.8074937 -0.11511434 31
-2.3992798 2.8720136 -0.12930262 37
-2.4683819 2.9832451 -0.69509691 48
-2.375247 2.8582532 -0.41371849 28
-2.2158179 2.6855962 0.14005636 40
-4.6194897 3.2098258 0.32499534 41
-2.2672675 2.7676332 0.28902912 36
nan nan nan 0
-2.9942124 3.6645005 0.85534376 38
-4.0805402 2.8141837 1.3148143 29
-5.2765708 3.620955 0.035520755 39
-3.9029186 3.243782 -0.0017575464 35
-2.8119678 2.8093348 -0.022663848 19
-2.363337 2.8330014 -0.042681053 33
nan nan nan 0
-3.9244661 3.2548277 0.11744662 35
-2.8387647 2.8312724 0.069286048 21
-2.3417022 2.8119826 0.04233025 33
-3.5172265 2.3908317 -1.9673814 31
-5.9895148 4.0878825 -1.8879896 28
-5.6042709 3.8582492 -0.94464964 26
-5.6005573 3.8471212 -0.63734591 15
-5.5738702 3.8259847 -0.43345204 17
-3.8869178 3.2202322 -0.35192552 38
-2.8367252 2.8320932 -0.30187866 27
-2.3905306 2.8727205 -0.30205578 39
-5.144917 3.5386522 -0.25463322 32
-3.8876061 3.2378979 -0.23583387 32
-2.8133166 2.814573 -0.20646533 32
-2.3688326 2.8596644 -0.21375923 35
-5.239306 3.5941274 -0.11241596 33
-3.9304645 3.2632549 -0.11767872 38
-2.8158004 2.8103004 -0.11482291 30
-2.3924246 2.8842218 -0.12947713 38
-2.4548359 2.9880369 -0.69420457 42
-2.3778811 2.8818762 -0.41595486 20
-2.2001104 2.6855748 0.13964981 38
-4.6614509 3.2630951 0.328771 102
-2.2513168 2.7677884 0.28821498 35
nan nan nan 0
-2.9906852 3.6864009 0.85803354 39
-4.0468731 2.8118992 1.307065 24
nan nan nan 0
-3.8992424 3.2638021 -0.0017610372 36
-2.7880521 2.8049424 -0.022548657 22
-2.3502502 2.8373792 -0.042622585 33
nan nan nan 0
-3.9207554 3.2749128 0.11767872 37
-2.8182874 2.8305316 0.069024265 23
-2.3223319 2.8085659 0.042154849 35
-3.5088594 2.4030948 -1.9673814 35
-5.9831843 4.1142402 -1.8905221 26
-5.5541282 3.852417 -0.93842572 25
-5.5461383 3.8383522 -0.63264918 17
-5.0143614 3.4683938 -0.39065388 39
-3.8833146 3.2401681 -0.35262656 39
-2.8197935 2.8349051 -0.30112016 23
-2.3551407 2.850276 -0.29879913 40
nan nan nan 0
-3.887763 3.2610736 -0.23653784 35
-2.792927 2.8137398 -0.2056803 31
-2.3430114 2.8486161 -0.21230707 33
-5.1979222 3.5925224 -0.11179291 35
-3.9267218 3.2833655 -0.11791083 40
-2.7954032 2.8094788 -0.11438577 31
-2.3855131 2.8964171 -0.12965162 39
-2.4412868 2.9927711 -0.69331229 39
-2.3772361 2.9017034 -0.41763207 27
-2.1844308 2.6854768 0.13924325 41
-5.1316895 3.6183634 0.36304218 41
-2.2322674 2.7639835 0.28699371 35
nan nan nan 0
-2.9654758 3.6814797 0.85444719 38
-4.0132723 2.8094137 1.2993156 18
-4.5861235 3.195317 0.030996885 21
-3.8954737 3.2838356 -0.0017645278 33
-2.7677116 2.803977 -0.022462264 20
-2.3339913 2.8378334 -0.042505652 34
-4.6283088 3.2270634 0.1613901 41
-3.9207797 3.2982283 0.11802689 36
-2.7943368 2.8261259 0.068675213 26
-2.3061805 2.8089175 0.042037915 33
-3.4967177 2.4127603 -1.9652659 25
-5.9727645 4.1378517 -1.8917884 18
-4.6105981 3.22297 -0.78006208 41
-4.6052742 3.2121451 -0.52603346 28
-4.6007929 3.2066662 -0.3591184 25
-3.8834403 3.2633262 -0.35367817 36
-2.7993751 2.834085 -0.29998243 21
-2.3167818 2.8237627 -0.29513538 41
-4.6118355 3.2203178 -0.22921088 37
-3.8839886 3.2810678 -0.23700716 37
-2.7760813 2.8163564 -0.20515694 31
-2.3109934 2.8296812 -0.21027403 33
-4.6147423 3.214062 -0.099420927 39
-3.9267108 3.3067071 -0.11825899 39
-2.7785568 2.8121059 -0.11409434 30
-2.3659155 2.8931081 -0.12912813 39
-2.4277344 2.9974468 -0.69242001 56
-2.379611 2.9254203 -0.41986838 39
-2.1719108 2.6891932 0.13903998 44
-5.0823817 3.6102688 0.36042827 39
-2.2163837 2.7639728 0.28617954 36
nan nan nan 0
-2.9495389 3.687963 0.85355055 39
-3.9797382 2.8067286 1.2915661 19
-4.566752 3.2055693 0.030941036 23
-3.891613 3.3038828 -0.0017680185 34
-2.7439141 2.7993317 -0.022347072 25
-2.3209145 2.8420858 -0.042447183 33
-4.7070522 3.3063138 0.16455743 67
-3.9168727 3.3183537 0.11825899 37
-2.7739518 2.8251562 0.068413429 29
-2.286902 2.8053105 0.041862514 34
-3.4882739 2.4249513 -1.9652659 22
-5.9622531 4.1614408 -1.8930546 17
-4.5993204 3.2390442 -0.78006208 40
-4.5695791 3.2110527 -0.52321541 15
-4.5773125 3.2141161 -0.35815305 21
-3.879642 3.283303 -0.35437918 36
-2.782486 2.8367176 -0.29922393 20
-2.3037691 2.8279641 -0.29472831 41
-4.5964775 3.233526 -0.22900587 33
-3.8801224 3.3010757 -0.23747648 37
-2.7557607 2.81532 -0.2043719 31
-2.30424 2.8416126 -0.21056446 38
-4.5994 3.2272835 -0.099331915 41
-3.9265845 3.3300891 -0.11860715 39
-2.7582278 2.8110807 -0.11365719 32
-2.3495142 2.8935809 -0.12877913 39
-2.4111018 2.9982259 -0.69063538 80
-2.3725011 2.9375794 -0.42042747 42
-2.1562729 2.6889529 0.13863343 46
-5.0453777 3.6105788 0.35868567 38
-2.2005272 2.763885 0.28536537 35
-4.5987525 3.2951651 0.68978047 41
-2.9122152 3.6673882 0.84637785 43
-3.9462729 2.8038437 1.2838167 27
-4.5105972 3.1897793 0.030633857 19
-3.8876593 3.3239427 -0.0017715091 33
-2.7236688 2.7981393 -0.022260679 26
-2.3046937 2.8423936 -0.04233025 32
-5.1200652 3.6225672 0.17953028 34
-3.9128737 3.3384922 0.11849111 37
-2.7501194 2.820498 0.068064377 30
-2.2708166 2.8054941 0.041745577 34
-3.476074 2.4345188 -1.9631503 23
-5.9516492 4.1850071 -1.894321 17
-4.6081929 3.2693868 -0.7835198 30
-4.5624084 3.2298563 -0.5236851 15
-4.5742173 3.2358296 -0.3587966 22
-3.8833463 3.3097615 -0.35578129 36
-2.7656128 2.839267 -0.29846543 25
-2.2970119 2.8398678 -0.29513538 42
-5.0542207 3.5812938 -0.25258303 33
-3.87237 3.317848 -0.23771115 35
-2.7354808 2.8141758 -0.20358686 29
-2.294307 2.8496385 -0.21056446 41
-5.0742307 3.586241 -0.10992376 33
-3.9225409 3.3502653 -0.11883926 38
-2.741426 2.813529 -0.11336577 34
-2.3300083 2.8900802 -0.12825565 39
-2.3975575 3.002775 -0.6897431 70
-2.3622327 2.945843 -0.42042747 43
-2.1406631 2.6886363 0.13822688 45
-4.9881773 3.5960968 0.35549089 39
-2.1846986 2.7637203 0.2845512 35
-4.5952754 3.3169992 0.69099915 40
-2.9328425 3.7200654 0.85624039 41
-3.9128757 2.8007596 1.2760674 30
-4.4709105 3.1852257 0.030438382 22
-3.8836133 3.3440154 -0.0017749998 34
-2.703465 2.7968395 -0.022174286 26
-2.2853696 2.8387237 -0.042154849 30
-5.0748091 3.6172388 0.17837852 35
-3.9125736 3.3618991 0.11883926 34
-2.7263539 2.8157082 0.067715332 28
-2.2547576 2.8056002 0.041628644 33
-3.4675546 2.4466379 -1.9631503 28
-5.9330554 4.2029634 -1.8930546 18
nan nan nan 0
-4.5754404 3.2630811 -0.52650315 12
-5.0589685 3.6045792 -0.39805508 32
-3.8755555 3.326544 -0.35613182 35
-2.7487562 2.8417332 -0.29770696 23
-2.2808559 2.8400881 -0.29432121 42
-5.0620322 3.6134095 -0.25360811 31
-3.875895 3.3443909 -0.2386498 34
-2.7187088 2.8165193 -0.2030635 26
-2.2812352 2.8537261 -0.21027403 41
-5.0820565 3.6184115 -0.1103688 31
-3.9259858 3.3769703 -0.11930348 39
-2.7246408 2.8158946 -0.11307434 33
-2.3105555 2.8864784 -0.12773214 39
-2.3840106 3.0072658 -0.68885082 49
-2.3519351 2.9540708 -0.42042747 47
-2.1219904 2.684319 0.13761705 42
-4.9513459 3.5959084 0.35374829 39
-2.1658275 2.7595534 0.28332996 34
-4.5876846 3.3359344 0.69160849 40
-2.9289203 3.7419114 0.85893011 33
-3.8834696 2.800297 1.2696096 30
-4.4272451 3.1775224 0.030214982 21
-3.8832531 3.3673742 -0.0017802358 34
-2.6833038 2.795433 -0.022087893 26
-2.2692153 2.8388638 -0.042037915 24
-5.0377784 3.6174622 0.17751472 36
-3.9083769 3.3820755 0.11907137 36
-2.7026548 2.8107867 0.067366287 28
-2.2387259 2.8056281 0.041511711 35
-3.4589932 2.4587269 -1.9631503 20
-5.9144092 4.2208414 -1.8917884 15
-5.3814921 3.8736315 -0.92044556 38
-5.0616188 3.6358025 -0.58427286 22
-5.0220184 3.6047802 -0.39612433 31
-3.871469 3.3465726 -0.35683283 38
-2.731916 2.8441164 -0.29694846 19
-2.2709281 2.8480325 -0.29432121 43
-5.0169201 3.6077526 -0.25196797 30
-3.8755107 3.3677244 -0.23935378 37
-2.6985004 2.8151731 -0.20227847 25
-2.268163 2.8577573 -0.2099836 37
-5.0368762 3.612848 -0.10965674 31
-3.9179533 3.3939257 -0.11941953 39
-2.7078726 2.8181772 -0.11278291 34
-2.2911563 2.8827765 -0.12720867 40
-2.3704619 3.0116987 -0.68795854 48
-2.3385336 2.9583597 -0.41986838 47
-2.1064517 2.6838393 0.1372105 41
nan nan nan 0
-2.1500688 2.7592244 0.28251582 35
-4.5840254 3.3577862 0.69282717 40
-2.9369352 3.7793269 0.86520618 34
-3.8502033 2.7968292 1.2618601 30
-4.3877435 3.1724789 0.030019507 19
-3.8790092 3.3874836 -0.0017837264 32
-2.6631856 2.7939205 -0.022001499 31
-2.253088 2.8389258 -0.041920982 15
-4.9724426 3.5969911 0.1756431 35
-3.9040868 3.4022627 0.11930348 35
-2.6824751 2.8093519 0.067104504 30
-2.2227216 2.8055785 0.041394774 35
-3.4540765 2.4734187 -1.9652659 29
-5.89571 4.2386403 -1.8905221 23
-5.3478813 3.8778744 -0.91698784 38
-5.0610027 3.6621928 -0.58568192 21
-4.9729924 3.5960073 -0.3932282 33
nan nan nan 0
-2.7150927 2.8464167 -0.29618999 25
-2.2578857 2.8520303 -0.29391414 42
-4.9678607 3.5988972 -0.25012279 31
-3.8449328 3.3647923 -0.23818046 40
-2.6817753 2.8173389 -0.20175511 28
-2.2520068 2.8578064 -0.20940273 39
-4.9796333 3.5982406 -0.10867766 34
-3.9136178 3.4141502 -0.11965164 41
-2.6911218 2.8203773 -0.11249148 33
-2.271811 2.878974 -0.12668516 40
-2.3569112 3.0160737 -0.68706626 55
-2.3251312 2.9625916 -0.41930932 45
-2.0878782 2.679338 0.13660067 44
-4.2868185 3.1600854 0.30756935 45
-2.1343391 2.7588196 0.28170165 35
-4.3165312 3.1854219 0.65382898 42
-2.9177253 3.7817595 0.8634131 36
