# .PCD v0.7 - Point Cloud Data file format
VERSION 0.7
FIELDS x y z intensity
SIZE 4 4 4 4
TYPE F F F F
COUNT 1 1 1 1
WIDTH 1518
HEIGHT 1
VIEWPOINT 0 0 0 1 0 0 0
POINTS 1518
DATA ascii
-3.3037281 8.0420065 -2.260803 18
-6.4529181 15.756222 -2.3601387 14
-10.112875 24.393391 -2.4970605 13
-14.480562 34.768105 -2.4000363 13
-10.997282 35.185524 -2.5879147 13
-2.6648936 12.49751 -0.9645232 22
-3.8825414 32.661182 -2.6720259 18
-17.108419 41.564068 -1.8272374 16
-10.912395 35.412067 -1.7132282 15
-2.63643 12.502742 -0.66309887 23
-4.299551 36.776585 -2.1521139 8
-16.965052 41.606956 -0.78361297 21
-12.947262 42.567486 -1.0320679 27
-2.6493843 12.542748 -0.37259161 15
-5.0165668 44.395401 -1.5432043 44
-1.4833827 12.853036 -2.3440971 17
-2.5346224 21.994589 -2.4867837 15
-5.0846648 44.442711 1.8184966 37
-16.956564 41.794601 2.6220357 16
-5.1099596 44.457989 3.6523514 36
-16.889484 41.838573 5.5110931 14
-5.0181999 44.549885 8.164319 37
nan nan nan 0
-16.957069 41.670769 0.258892 16
-12.943222 42.58123 0 42
nan nan nan 0
-4.992547 44.391876 -0.50635713 46
-16.944744 41.661366 1.3101177 18
-12.885904 42.633091 1.0331124 34
-8.901185 43.547489 0.79064995 35
-4.9366031 44.453098 0.53817844 52
-1.7995764 4.3682399 -2.1865718 21
-3.275636 8.0534897 -2.260803 19
-6.3997416 15.783238 -2.3608267 15
-10.040903 24.460772 -2.5003603 15
nan nan nan 0
-10.886166 35.261818 -2.5907185 14
-2.6202309 12.501856 -0.96414566 22
-3.7759216 32.738895 -2.6772952 17
-14.175682 34.786037 -1.5267972 15
nan nan nan 0
-2.5917587 12.506979 -0.66283888 26
nan nan nan 0
-16.812223 41.647377 -0.78326392 19
-12.795718 42.60284 -1.0318358 31
-2.6005094 12.527451 -0.37186301 16
nan nan nan 0
-1.437963 12.853247 -2.3432031 22
-2.4589324 22.01318 -2.4879019 15
-4.9311495 44.475086 1.8191063 42
-16.797543 41.821114 2.6200027 16
-4.9574966 44.500317 3.6543865 39
-16.732285 41.869625 5.507453 15
-4.8647928 44.586693 8.1679058 37
nan nan nan 0
-16.804031 41.711151 0.25877681 17
-12.793069 42.621361 0 43
nan nan nan 0
-4.8397226 44.428913 -0.50658399 43
-16.78801 41.692444 1.3092434 18
-12.73415 42.668236 1.0328803 38
-8.7501059 43.583199 0.790739 38
-4.7835383 44.489944 0.53841931 53
-1.7860335 4.3786879 -2.1886864 17
-3.247504 8.0648746 -2.260803 17
-6.3464556 15.810079 -2.361515 14
-9.9517088 24.486454 -2.4994175 13
-14.192197 34.757481 -2.3923969 18
-10.761559 35.294834 -2.5903683 15
-2.5755701 12.506042 -0.96376818 19
-3.6776528 32.895504 -2.6890502 17
-16.802876 41.645435 -1.8256111 15
-10.659156 35.46825 -1.7123035 9
-2.5460944 12.506163 -0.662319 23
-4.0465093 36.840435 -2.1541471 15
-16.650043 41.664032 -0.78247857 21
-12.642664 42.632874 -1.0314876 32
-2.5567646 12.536452 -0.37186301 16
-4.7117667 44.479034 -1.5449319 39
-1.3930881 12.858187 -2.3432031 18
-2.3836765 22.036448 -2.4895792 15
-4.7785358 44.516869 1.8201228 44
-16.638546 41.847027 2.6179698 15
-4.8042669 44.53717 3.6560149 40
-16.575073 41.900089 5.5038123 15
-4.7111902 44.622967 8.1714916 38
nan nan nan 0
-16.649065 41.746334 0.25863281 16
-12.641374 42.65617 0 44
nan nan nan 0
-4.6877489 44.475372 -0.50692433 42
-16.636822 41.736866 1.3088063 17
-12.58372 42.70763 1.0327642 33
-8.5988865 43.618385 0.79082805 34
-4.6302762 44.526264 0.53866017 57
-1.7741417 4.3932939 -2.1929159 18
-3.2175381 8.0716686 -2.2595391 18
-6.2912297 15.832135 -2.361515 16
-9.8661757 24.521042 -2.4994175 14
nan nan nan 0
-10.642607 35.346512 -2.5914199 13
-2.5309122 12.51007 -0.96339065 18
-3.5622685 32.903191 -2.6886451 17
-13.912094 34.833118 -1.5245612 11
-10.533863 35.500454 -1.7120723 9
-2.501446 12.510078 -0.66205907 25
nan nan nan 0
-16.511866 41.740494 -0.78282768 25
-12.490962 42.667149 -1.0312556 29
nan nan nan 0
-4.5590191 44.520065 -1.5457956 41
-1.3476853 12.858078 -2.342309 22
-2.3082881 22.05946 -2.4912562 17
-4.6256895 44.558121 1.8211391 42
-16.479568 41.872337 2.6159368 16
-4.6513572 44.578453 3.6580505 35
-16.417854 41.929966 5.5001721 15
-4.5573936 44.658718 8.1750784 35
nan nan nan 0
-16.490385 41.771645 0.25843123 16
-12.490994 42.695236 0 45
nan nan nan 0
-4.5360146 44.526279 -0.50732136 44
-16.48369 41.776089 1.3082235 15
-12.433167 42.746494 1.0326482 34
-8.447526 43.653046 0.79091704 33
-4.476819 44.562054 0.53890103 47
-1.7587954 4.3994598 -2.1929159 18
-3.1893432 8.0828505 -2.2595391 20
-6.237741 15.858608 -2.3622029 15
-9.7805204 24.555332 -2.4994175 14
-13.93807 34.827919 -2.390487 13
-10.516315 35.373882 -2.5907185 13
-2.4852867 12.509048 -0.9626357 18
-3.4473932 32.915428 -2.6886451 17
-16.482327 41.687393 -1.8223588 11
nan nan nan 0
-2.4558396 12.508934 -0.6615392 26
-3.7968621 36.942268 -2.1585035 16
-16.355125 41.769951 -0.78230411 32
-12.339173 42.700886 -1.0310234 30
nan nan nan 0
-4.4040785 44.540684 -1.5459684 42
-1.302794 12.862704 -2.342309 18
-2.2322695 22.077269 -2.4923744 15
-4.4726148 44.598854 1.8221555 42
-16.322433 41.901703 2.6141939 14
-4.4977179 44.614254 3.6596789 37
-16.262421 41.963879 5.4971385 15
-4.4034047 44.693935 8.1786642 34
nan nan nan 0
-16.331734 41.796356 0.25822964 20
-12.339108 42.72897 0 46
nan nan nan 0
-4.3825169 44.561749 -0.50754827 42
-16.332308 41.819405 1.3077863 15
-12.2825 42.784832 1.0325322 37
-8.29603 43.687176 0.79100603 31
-4.3231683 44.597317 0.53914183 53
-1.7451 4.4097838 -2.1950305 17
-3.1611094 8.0939341 -2.2595391 19
-6.184145 15.884901 -2.3628912 13
-9.6910925 24.580061 -2.4984748 15
nan nan nan 0
-10.380131 35.367306 -2.587564 16
-2.4406528 12.512753 -0.96225816 18
-3.3184471 32.788425 -2.6772952 16
-16.327602 41.721409 -1.8213423 12
-10.281606 35.558735 -1.7113788 16
-2.411216 12.512527 -0.66127926 24
-4.2492843 42.821583 -2.5015059 8
-16.185728 41.766186 -0.78116965 34
-12.188673 42.738888 -1.0309074 34
nan nan nan 0
-4.2514181 44.585632 -1.5470048 43
-1.2574102 12.862277 -2.3414149 18
-2.1571174 22.104708 -2.4946108 18
-4.3188305 44.634087 1.8229686 42
-16.165295 41.930481 2.6124516 15
-4.344367 44.654476 3.6617141 41
-16.106951 41.997223 5.4941044 14
-4.2492251 44.728619 8.18225 27
nan nan nan 0
-16.174913 41.825127 0.25805685 19
-12.188511 42.766975 0 45
nan nan nan 0
-4.2269402 44.576775 -0.50754827 42
-16.180824 41.862179 1.3073492 16
-12.131718 42.822639 1.0324161 37
-8.1443968 43.720783 0.79109502 30
-4.1697898 44.637024 0.5394429 53
-1.7296963 4.4158483 -2.1950305 15
-3.1328368 8.1049194 -2.2595391 22
-6.1304407 15.911011 -2.3635793 14
-9.6197176 24.650831 -2.5022459 14
-14.911889 38.027374 -2.6031163 7
-10.274659 35.465599 -2.5921206 16
-2.3960235 12.5163 -0.96188068 17
-3.1884949 32.641087 -2.6643243 17
-16.060934 41.466042 -1.807723 8
nan nan nan 0
-2.3665977 12.515962 -0.66101933 22
-3.5445652 37.0275 -2.1619887 16
nan nan nan 0
-12.038058 42.776371 -1.0307914 28
nan nan nan 0
-4.0962157 44.605175 -1.5471777 42
-1.2125049 12.866588 -2.3414149 20
-2.0785522 22.097263 -2.4929338 17
-4.165318 44.673756 1.8239849 39
-16.008152 41.958672 2.610709 15
-4.1903262 44.68922 3.6633425 35
-15.951448 42.029991 5.4910707 14
-4.095305 44.767673 8.1867332 29
nan nan nan 0
-16.021667 41.862656 0.25794166 16
-12.036445 42.799633 0 48
nan nan nan 0
-4.0717664 44.596237 -0.50760502 40
-16.027456 41.899731 1.3067664 17
-11.980818 42.859909 1.0323 32
-7.9926329 43.753864 0.79118407 29
-4.0157409 44.671227 0.53968376 51
-1.7142715 4.4218593 -2.1950305 18
-3.1027951 8.1112881 -2.2582755 19
-6.0748634 15.932314 -2.3635793 17
-9.5443773 24.712118 -2.5050745 12
-13.540087 34.888241 -2.3847575 9
-10.182342 35.611546 -2.600183 16
-2.3513994 12.519687 -0.96150315 18
-3.0591462 32.488285 -2.650948 20
-16.037727 41.839046 -1.8215457 14
-10.023633 35.595993 -1.7097605 25
-2.3219843 12.519237 -0.66075939 22
-3.9570956 42.924767 -2.5058622 8
-15.891979 41.873489 -0.78108239 27
-11.885992 42.808491 -1.0305592 26
nan nan nan 0
-3.9400506 44.614227 -1.5470048 42
-1.1675847 12.870742 -2.3414149 19
-2.0009589 22.099434 -2.4923744 13
-4.0111356 44.707928 1.824798 39
-15.852772 41.990944 2.6092567 15
-4.0360956 44.723423 3.6649709 36
-15.795912 42.062187 5.4880371 14
-3.9411643 44.806198 8.1912165 27
nan nan nan 0
-15.868357 41.899628 0.25782648 19
-11.884298 42.831749 0 49
nan nan nan 0
-3.916945 44.62014 -0.50771844 45
-15.874021 41.936729 1.3061835 16
-11.828477 42.891834 1.0320679 34
-7.8407354 43.786419 0.79127306 27
-3.8619328 44.709877 0.53998482 53
-1.6988261 4.4278164 -2.1950305 17
-3.072747 8.1175461 -2.2570117 18
-6.0227118 15.962687 -2.3649554 15
-9.4687271 24.77318 -2.5079029 13
-14.638886 38.111916 -2.6018431 11
-10.039005 35.579666 -2.5952756 20
-2.3067803 12.522916 -0.96112561 18
-2.9493144 32.538467 -2.6541905 16
-13.247108 34.925816 -1.5182595 15
nan nan nan 0
-2.2773771 12.522352 -0.66049945 22
-3.2890623 37.086151 -2.164022 13
-15.729894 41.886593 -0.78029704 30
-11.73517 42.844906 -1.0304432 25
nan nan nan 0
-3.7813423 44.59285 -1.5457956 37
-1.1226503 12.874739 -2.3414149 17
-1.9233756 22.101334 -2.4918156 16
-3.8567653 44.74157 1.8256111 41
-15.69911 42.027325 2.6080949 15
-3.8812473 44.752136 3.6661921 35
-15.640347 42.093807 5.4850035 13
-3.7868037 44.844189 8.1956997 28
nan nan nan 0
-15.716738 41.94072 0.25774008 18
-11.733396 42.868149 0 46
nan nan nan 0
-3.7607486 44.628559 -0.50766176 28
-15.720524 41.973164 1.3056006 17
-11.676058 42.92321 1.0318358 31
-7.6895728 43.823368 0.7914511 24
-3.7074921 44.743019 0.54022568 48
-1.6833596 4.4337192 -2.1950305 18
-3.0426934 8.1236944 -2.255748 17
-5.9652214 15.978975 -2.3642673 13
-9.401577 24.857292 -2.5130885 15
-13.292646 34.972591 -2.3841209 16
-9.9187632 35.62891 -2.5963271 17
-2.2621677 12.525985 -0.96074814 18
-2.8331256 32.518776 -2.6517587 16
-15.729441 41.907898 -1.8197161 16
-9.7762022 35.669922 -1.7099918 17
-2.2319007 12.520394 -0.65997958 20
-3.7765856 44.353905 -2.5877647 9
-15.578362 41.927189 -0.78003526 32
-11.584238 42.880779 -1.0303271 30
-7.8173614 43.788731 -1.2956921 41
-3.6341505 44.710373 -1.5494233 41
-1.0777023 12.87858 -2.3414149 19
-1.8458035 22.102962 -2.4912562 15
-3.7022088 44.774673 1.8264242 37
-15.545388 42.063141 2.6069331 15
-3.7266603 44.785278 3.6678205 34
-15.484752 42.124855 5.4819694 13
-3.6322265 44.881653 8.2001829 29
nan nan nan 0
-15.563286 41.976574 0.25762489 18
-11.581079 42.899193 0 44
nan nan nan 0
-3.6085591 44.686264 -0.50817221 31
-15.566964 42.009037 1.3050177 17
-11.523568 42.954052 1.0316037 35
-7.5399399 43.869652 0.79180712 24
-3.5528667 44.77562 0.54046649 49
-1.667873 4.439568 -2.1950305 18
-3.005898 8.1115894 -2.2494295 18
-5.90769 15.995054 -2.3635793 15
-9.3060226 24.86665 -2.5107315 14
-14.381248 38.236538 -2.6034346 10
nan nan nan 0
-2.2175617 12.528895 -0.9603706 17
-2.7204256 32.538403 -2.6525693 16
-12.978601 34.951881 -1.5154138 26
nan nan nan 0
-2.1890414 12.533028 -0.66023952 23
-3.0357513 37.17786 -2.168088 7
-15.416384 41.939079 -0.77924991 27
-11.433198 42.916119 -1.0302111 31
-7.6670456 43.830521 -1.2961291 45
-3.4811549 44.762646 -1.5508054 38
-1.0327411 12.882263 -2.3414149 17
-1.7686385 22.10927 -2.4912562 15
-3.5478621 44.812229 1.8274407 40
-15.391609 42.0984 2.6057715 13
-3.5722847 44.822853 3.6698561 36
-15.330826 42.159992 5.4795427 14
-3.4774332 44.918571 8.2046652 23
nan nan nan 0
-15.409776 42.011868 0.25750971 17
-11.429976 42.934525 0 39
nan nan nan 0
-3.4552441 44.733479 -0.5085693 38
-15.413347 42.044346 1.3044349 17
-11.371003 42.984348 1.0313716 32
-7.3884182 43.90556 0.79198509 25
-3.3980584 44.807686 0.54070735 41
-1.6523657 4.445363 -2.1950305 18
-2.9825692 8.1356554 -2.2532206 17
-5.8501201 16.010927 -2.3628912 15
-9.2174358 24.894316 -2.5102601 12
-13.022055 34.994392 -2.3793464 26
-9.566741 35.316967 -2.5686357 16
-2.1729631 12.531649 -0.95999318 17
-2.6052408 32.527832 -2.650948 16
-15.422701 41.979172 -1.81809 18
-9.5295172 35.746956 -1.7104541 16
-2.1427555 12.525826 -0.65945971 26
-2.9005237 37.118561 -2.164022 8
-15.268188 41.987942 -0.77916265 30
-11.282054 42.950935 -1.030095 28
-7.5165329 43.871792 -1.2965662 39
-3.3252523 44.779507 -1.5509782 39
-0.9881413 12.890695 -2.342309 17
-1.691452 22.115311 -2.4912562 15
-3.3932981 44.849243 1.828457 38
-15.237772 42.133095 2.6046097 14
-3.4176915 44.85989 3.6718912 40
-15.176846 42.194572 5.4771156 14
-3.322427 44.954967 8.2091484 24
nan nan nan 0
-15.257915 42.051304 0.25742331 17
-11.277497 42.964489 0 39
nan nan nan 0
-3.3012769 44.775192 -0.50890964 35
-15.259672 42.079098 1.303852 15
-11.219628 43.018944 1.0312556 35
-7.2383623 43.950813 0.79234111 21
-3.2434309 44.844212 0.54100841 46
-1.6368384 4.4511037 -2.1950305 20
-2.9574571 8.1551113 -2.255748 17
-5.792511 16.026592 -2.3622029 15
-9.1356211 24.940359 -2.5116742 14
nan nan nan 0
-9.4459791 35.359787 -2.5693367 17
-2.1275384 12.529325 -0.95923817 18
-2.4905419 32.521816 -2.6497319 15
nan nan nan 0
-11.271523 42.880836 -2.0502794 11
-2.099843 12.538155 -0.65971965 24
-3.3271163 44.595108 -2.5996723 9
-15.118143 42.031574 -0.77898812 30
-11.130805 42.985218 -1.029979 35
-7.3641729 43.902695 -1.296712 31
-3.1713872 44.825733 -1.5521876 32
-0.9431383 12.894065 -2.342309 14
-1.6138844 22.116123 -2.4906974 14
-3.238878 44.890713 1.8296766 35
-15.083879 42.167229 2.6034482 14
-3.2628837 44.896404 3.6739268 42
-15.02281 42.228588 5.4746885 12
-3.1672089 44.990829 8.2136316 34
nan nan nan 0
-15.104279 42.08548 0.25730813 17
-11.127456 43.003593 0 40
nan nan nan 0
-3.1470597 44.816364 -0.50924993 32
-15.105945 42.113297 1.3032691 16
-11.069396 43.057846 1.0312556 34
-7.0872874 43.990623 0.79260814 25
-3.0885887 44.880199 0.54130954 47
-1.6212912 4.45679 -2.1950305 21
-2.9322445 8.174489 -2.2582755 18
-5.7348633 16.042053 -2.361515 13
-9.0654755 25.018892 -2.5163882 14
-12.775724 35.079762 -2.3790281 15
-9.3199501 35.382896 -2.5686357 17
-2.082973 12.531757 -0.95886064 17
-2.3744681 32.495518 -2.6468945 17
-15.102208 42.010605 -1.8148376 15
-9.2671957 35.764263 -1.7081424 12
nan nan nan 0
-2.6466196 37.212589 -2.1683781 17
-14.967981 42.074669 -0.7788136 32
-10.979454 43.018967 -1.0298629 29
-7.2124982 43.937996 -1.2970034 32
nan nan nan 0
-0.89880347 12.907096 -2.3440971 17
-1.5359887 22.11171 -2.4895792 14
-3.0838683 44.926666 1.830693 41
-14.9316 42.205505 2.6025767 15
-3.1078625 44.932373 3.675962 39
-14.868723 42.262047 5.4722614 13
-3.011781 45.02615 8.2181139 30
nan nan nan 0
-14.95226 42.123817 0.25722173 18
-10.976041 43.037331 0 38
nan nan nan 0
-2.9929278 44.861996 -0.50964701 34
-14.952165 42.146931 1.3026863 15
-10.919029 43.096222 1.0312556 32
-6.9336882 44.015095 0.79260814 21
-2.9338601 44.920643 0.54167074 51
-1.6072636 4.4666839 -2.197145 18
-2.9053128 8.1892328 -2.2595391 17
-5.6755261 16.052635 -2.3601387 11
-8.9915314 25.08787 -2.5201597 13
nan nan nan 0
-9.203908 35.44418 -2.5707388 16
-2.0384166 12.534031 -0.9584831 18
-2.2658532 32.573212 -2.6525693 17
-14.962169 42.081894 -1.8156507 12
-9.1484785 35.820587 -1.7092981 8
nan nan nan 0
-2.5277965 37.385948 -2.1779625 8
-14.817702 42.117229 -0.77863902 31
-10.828004 43.052181 -1.0297468 29
-7.0606661 43.972775 -1.2972949 38
-2.861542 44.896648 -1.553915 31
-0.85438907 12.919972 -2.345885 17
-1.4604243 22.141726 -2.4923744 15
-2.9289706 44.967072 1.8319126 40
-14.779236 42.243233 2.6017053 14
-2.9526298 44.967815 3.6779976 38
-14.714585 42.294941 5.4698348 14
-2.8561447 45.060932 8.2225971 36
nan nan nan 0
-14.80016 42.161598 0.25713533 16
-10.824527 43.07053 0 38
nan nan nan 0
-2.8385155 44.907097 -0.51004404 33
-14.796678 42.175285 1.3019577 15
-10.768528 43.134075 1.0312556 33
-6.7800045 44.039028 0.79260814 18
-2.7788868 44.960548 0.542032 49
-1.5931865 4.4765339 -2.1992598 17
-2.8783143 8.2038889 -2.260803 17
-5.6161857 16.063 -2.3587625 11
-8.9471684 25.241076 -2.5324163 14
-12.522134 35.144596 -2.3774364 9
-9.0838394 35.490585 -2.5717902 18
-1.9938695 12.536145 -0.95810562 17
-2.1590192 32.685356 -2.6610818 15
-14.806894 42.110298 -1.8146343 12
nan nan nan 0
nan nan nan 0
-2.390588 37.289936 -2.1718636 24
-14.664023 42.149811 -0.77828997 36
-10.677657 43.089714 -1.0297468 29
-6.9079046 44.00209 -1.2974406 37
-2.706305 44.931305 -1.5547788 31
-0.80989558 12.932695 -2.3476732 19
-1.3843603 22.166525 -2.4946108 17
-2.7738287 45.006939 1.8331324 38
-14.626793 42.280415 2.6008341 14
-2.7971878 45.002716 3.680033 39
-14.560398 42.327274 5.4674077 13
-2.7008893 45.105003 8.2288733 37
nan nan nan 0
-14.647977 42.19883 0.25704893 18
-10.674117 43.108051 0 45
nan nan nan 0
-2.683825 44.951672 -0.51044112 33
-14.639536 42.198353 1.3010836 16
-10.616703 43.166546 1.0311395 32
-6.6262379 44.062424 0.79260814 16
-2.6233804 44.994934 0.54233313 47
-1.5790602 4.48634 -2.2013745 15
-2.8512483 8.2184553 -2.2620666 17
-5.5665603 16.101227 -2.361515 14
-8.8672457 25.295643 -2.5347733 14
-13.637053 38.698746 -2.6148937 7
-8.9525785 35.493061 -2.5696874 15
-1.9508636 12.547956 -0.9584831 17
-2.0532913 32.826984 -2.6720259 14
-14.651606 42.138134 -1.8136179 10
-8.8981838 35.883583 -1.7092981 13
nan nan nan 0
-2.2640226 37.357845 -2.1753488 11
-14.511922 42.186558 -0.77802819 31
-10.525996 43.121868 -1.0296308 27
-6.7557817 44.035816 -1.297732 34
-2.5519907 44.985378 -1.5563335 39
-0.76618874 12.959998 -2.3521433 18
-1.3081411 22.191063 -2.4968472 15
-2.618155 45.041283 1.8341486 42
-14.475885 42.32177 2.6002533 14
-2.6415381 45.037079 3.6820683 32
-14.406166 42.359051 5.4649806 14
-2.5450847 45.143616 8.2342529 36
nan nan nan 0
-14.495715 42.235519 0.25696254 16
-10.523576 43.14505 0 39
nan nan nan 0
-2.5282977 44.985725 -0.51072472 37
-14.484035 42.225559 1.3003548 17
-10.463604 43.193626 1.0309074 36
-6.4745688 44.100124 0.79287517 18
-2.4676678 45.028774 0.54263413 49
-1.5633904 4.4918246 -2.2013745 13
-2.8225434 8.2283583 -2.2620666 16
-5.516736 16.139305 -2.3642673 12
-8.7430048 25.222977 -2.5244024 15
-13.457536 38.618893 -2.6062994 10
-8.8346472 35.548302 -2.57144 15
-1.9048067 12.539902 -0.95735061 17
-1.938984 32.838928 -2.6724312 14
-12.08178 35.145161 -1.5105351 8
nan nan nan 0
nan nan nan 0
-2.1310508 37.320667 -2.1727347 11
-14.358133 42.218025 -0.77767915 33
-10.378914 43.172932 -1.029979 28
-6.6035075 44.069016 -1.2980235 28
-2.3954771 45.003994 -1.5566791 38
-0.71931809 12.933122 -2.3467791 18
-1.2320414 22.220299 -2.4996426 16
-2.4622753 45.075096 1.8351651 37
-14.323268 42.357861 2.5993819 14
-2.4859562 45.075878 3.6845107 34
-14.253471 42.394966 5.4631605 14
-2.3890438 45.181705 8.2396326 34
nan nan nan 0
-14.343376 42.271656 0.25687614 17
-10.371739 43.176659 0 39
nan nan nan 0
-2.3717778 45.004261 -0.51083815 31
-14.322102 42.233265 1.2990435 18
-10.310446 43.220165 1.0306753 33
-6.3234262 44.14225 0.79323119 16
-2.3120067 45.067078 0.54299545 45
-1.549181 4.5015368 -2.2034893 14
-2.7938037 8.2381611 -2.2620666 17
-5.4587784 16.15377 -2.3635793 13
-8.6436024 25.220383 -2.5211024 15
-12.132279 35.212471 -2.3732984 9
nan nan nan 0
-1.857368 12.521814 -0.95546311 17
-1.826548 32.885303 -2.675674 15
-14.352245 42.225204 -1.8130081 10
-3.0081704 12.509586 -0.59365404 22
nan nan nan 0
-2.3317046 43.518555 -2.5334535 12
-14.204304 42.248932 -0.7773301 37
-10.222391 43.184574 -1.0293987 32
-6.4518075 44.106632 -1.2984606 30
-2.2396071 45.037033 -1.5575428 30
-0.67391473 12.930641 -2.345885 18
-1.1544704 22.224464 -2.4996426 15
-2.3064458 45.113346 1.8363847 39
-14.170577 42.393398 2.5985107 15
-2.3301356 45.114143 3.6869533 33
-14.100699 42.430328 5.46134 13
-2.2327676 45.219242 8.2450123 28
nan nan nan 0
-14.190962 42.307247 0.25678974 18
-10.220962 43.212601 0 39
nan nan nan 0
-2.2146692 45.012264 -0.51083815 31
-14.182538 42.30669 1.299772 17
-10.157232 43.246159 1.0304432 35
-6.1720691 44.183865 0.79358721 16
-2.1561074 45.104832 0.54335672 46
-1.5334584 4.5069175 -2.2034893 14
-2.7650304 8.2478628 -2.2620666 13
-5.413352 16.205603 -2.3683958 15
-8.5539169 25.245686 -2.5206311 15
-13.221403 38.811085 -2.6129837 9
-3.0150797 12.510066 -0.90154624 18
-1.8136474 12.528221 -0.95546311 17
-1.7096798 32.851662 -2.6724312 15
-11.836129 35.228653 -1.5105351 14
-2.9656367 12.52487 -0.59388518 23
-5.2170768 36.645359 -1.9248321 15
nan nan nan 0
-14.053586 42.288773 -0.77715558 26
-10.06024 43.171314 -1.0282382 22
-6.2999249 44.14373 -1.2988977 33
nan nan nan 0
-0.62830049 12.923087 -2.3440971 20
-1.077364 22.238283 -2.5007608 15
-2.1503792 45.15107 1.8376044 39
-14.017809 42.428383 2.5976393 13
-2.1738393 45.146893 3.6889887 39
-13.947856 42.465149 5.4595199 13
-2.0762584 45.256245 8.250391 30
nan nan nan 0
-14.040047 42.347034 0.25673217 17
-10.068925 43.243145 0 36
nan nan nan 0
-2.059355 45.059677 -0.51129192 34
-14.033201 42.351196 1.2996262 15
-10.008465 43.291092 1.0306753 29
-6.0204973 44.224953 0.79394323 15
-1.9999732 45.142052 0.54371798 49
-1.5177168 4.5122428 -2.2034893 14
-2.7392719 8.2666464 -2.2645941 15
-5.3691854 16.26202 -2.3739007 13
-8.4609947 25.26123 -2.5192168 14
-11.865446 35.23484 -2.3691607 16
-2.9690881 12.510809 -0.90084523 17
nan nan nan 0
-1.5945139 32.847473 -2.6716204 15
-14.04451 42.286446 -1.8113819 13
-2.9173603 12.515689 -0.59296054 21
nan nan nan 0
-1.7445214 37.435677 -2.1782532 13
-13.901204 42.323326 -0.77689385 30
-9.9195404 43.250015 -1.0292826 19
-6.1485515 44.185249 -1.2994807 31
-1.9289664 45.141438 -1.5606524 31
-0.58296692 12.920287 -2.3432031 18
-1.001285 22.276655 -2.5046742 15
-1.9938577 45.18325 1.8386207 41
-13.863422 42.45808 2.5964777 14
-2.0175643 45.184074 3.6914313 36
-13.796474 42.504135 5.4583063 12
-1.9195181 45.292702 8.2557707 34
nan nan nan 0
-13.887469 42.381531 0.25664574 18
-9.9179173 43.27803 0 39
nan nan nan 0
-1.9037369 45.106556 -0.51174575 33
-13.882171 42.390423 1.2993349 15
-9.8606167 43.340385 1.0310234 29
-5.8687143 44.265522 0.7942993 14
-1.8438089 45.183727 0.54413944 47
-1.5019569 4.5175128 -2.2034893 23
-2.7119079 8.280755 -2.2658579 16
-5.3246894 16.318323 -2.379405 16
-8.3805933 25.31424 -2.5215738 14
-12.958014 38.926117 -2.6145754 10
-2.9219925 12.506527 -0.89979368 18
nan nan nan 0
-1.4793984 32.842884 -2.6708097 17
-11.575872 35.267708 -1.5087057 13
-2.8680665 12.501456 -0.59180462 19
-4.9644642 36.705631 -1.9261318 18
-1.6116934 37.39167 -2.1753488 12
-13.750295 42.362076 -0.77671927 29
nan nan nan 0
-5.9962926 44.221306 -1.2999178 32
-1.7715771 45.152889 -1.5608251 27
-0.53786314 12.922243 -2.3432031 21
-0.92167747 22.235334 -2.4996426 14
-1.8373402 45.219887 1.8398403 46
-13.708999 42.487213 2.5953159 15
-1.8610561 45.220715 3.6938736 35
-13.643475 42.537857 5.4564862 14
-1.7623581 45.323704 8.2602539 33
nan nan nan 0
-13.734824 42.415482 0.25655937 17
-9.7656879 43.30751 0 35
nan nan nan 0
-1.7478162 45.152889 -0.51219946 33
-13.734117 42.438625 1.2993349 16
-9.7125463 43.389175 1.0313716 29
-5.7167211 44.305569 0.79465532 14
-1.6871918 45.219868 0.54450077 47
-1.484759 4.5184255 -2.2013745 18
-2.6859708 8.2993727 -2.2683852 16
-5.2889943 16.402792 -2.3890383 14
-8.3014717 25.371721 -2.5244024 12
-11.626974 35.340515 -2.3707519 17
-2.8704886 12.482626 -0.89733994 17
nan nan nan 0
-1.3647462 32.847851 -2.6708097 14
nan nan nan 0
-2.8233104 12.50652 -0.59157348 18
nan nan nan 0
-1.4786032 37.332222 -2.1715729 16
-13.599286 42.400299 -0.77654475 33
nan nan nan 0
-5.8438568 44.256828 -1.3003548 31
-1.6157321 45.208736 -1.5625527 32
-0.49256736 12.919126 -2.342309 17
-0.84424329 22.243382 -2.5002015 24
-1.6807758 45.260971 1.8412633 40
-13.554538 42.515781 2.5941541 13
-1.7041299 45.251839 3.6959093 40
-13.491908 42.57576 5.4552727 14
-1.6051785 45.359074 8.2656326 40
nan nan nan 0
-13.582109 42.448883 0.25647298 18
-9.6155405 43.346214 0 32
nan nan nan 0
-1.5912449 45.188698 -0.51253986 36
-13.582849 42.476788 1.2990435 16
-9.5653305 43.442337 1.0318358 28
-5.5645194 44.345097 0.79501134 14
-1.5305135 45.260464 0.54492223 49
-1.4689777 4.5235806 -2.2013745 17
-2.6584609 8.3133049 -2.269649 14
-5.2271905 16.407 -2.3869741 14
-8.2220516 25.428963 -2.527231 16
nan nan nan 0
-2.8257968 12.487704 -0.89698946 17
nan nan nan 0
-1.2525306 32.917152 -2.6760793 15
nan nan nan 0
-2.7774701 12.506547 -0.59111112 18
-4.7099948 36.754253 -1.9269116 15
-1.3506132 37.402008 -2.1753488 14
-13.448177 42.437981 -0.77637029 29
nan nan nan 0
-5.6906099 44.286869 -1.3006463 30
-1.4587165 45.239075 -1.5634165 37
-0.44746822 12.920766 -2.342309 18
-0.76608443 22.231295 -2.4985244 15
-1.5237796 45.296524 1.842483 38
-13.401548 42.548557 2.5932829 16
-1.5471783 45.287392 3.6983516 35
-13.338758 42.608391 5.4534521 13
-1.4479295 45.398815 8.2719088 34
nan nan nan 0
-13.42933 42.481735 0.25638658 17
-9.4652414 43.384399 0 36
nan nan nan 0
-1.4341288 45.213966 -0.51276672 32
-13.43148 42.514408 1.2987521 15
-9.409399 43.455921 1.0313716 28
-5.4115076 44.379139 0.79527837 14
-1.3735723 45.300507 0.54534376 47
-1.4531786 4.5286808 -2.2013745 17
-2.6308863 8.3271465 -2.2709126 15
-5.1758418 16.44404 -2.3897266 15
-8.1347542 25.462246 -2.5277021 12
-11.360118 35.359066 -2.3666141 9
-2.7821894 12.497493 -0.89698946 17
nan nan nan 0
-1.1377919 32.926304 -2.6764846 15
-13.119254 41.4259 -1.7664583 18
-2.7316639 12.506407 -0.59064877 17
nan nan nan 0
-1.2237737 37.521236 -2.1820288 13
-13.296968 42.475121 -0.7761957 32
-2.693311 12.550746 -0.29709813 15
-5.5384631 44.326302 -1.3012291 28
-1.3012228 45.258873 -1.5639347 29
-0.40221253 12.917333 -2.3414149 18
-0.68832552 22.22887 -2.4979653 13
-1.3665555 45.331528 1.8437026 39
-13.248492 42.580776 2.5924115 15
-1.3901519 45.327389 3.7012012 38
-13.185546 42.640465 5.451632 13
-1.2904226 45.438011 8.2781849 35
nan nan nan 0
-13.274995 42.509258 0.25627139 16
-9.3147936 43.422066 0 36
nan nan nan 0
-1.2767154 45.233692 -0.51293689 35
-13.277037 42.54195 1.2981691 17
-9.2576523 43.488503 1.0313716 26
-5.2589126 44.417614 0.79563439 13
-1.2163701 45.340012 0.54576522 47
-1.4359872 4.5294085 -2.1992598 18
-2.6032474 8.3408966 -2.2721765 15
-5.1228247 16.476192 -2.3917906 13
-8.045825 25.490488 -2.5277021 13
-12.481227 39.317249 -2.6288991 8
-2.7364128 12.497384 -0.89628845 17
nan nan nan 0
-1.0240823 32.969925 -2.6797276 15
-13.289446 42.477436 -1.8093491 16
-2.6858928 12.506101 -0.59018642 17
-4.4544892 36.796154 -1.9274316 9
nan nan nan 0
-13.145668 42.511726 -0.77602124 30
-2.6474195 12.55029 -0.29686606 14
-5.3861103 44.365211 -1.3018121 30
-0.95009691 37.580162 -1.2982403 14
-0.35685235 12.908824 -2.339627 20
-0.61045754 22.221203 -2.4968472 15
-1.2092383 45.370983 1.8451256 42
-13.095376 42.61245 2.5915401 13
-1.23273 45.361851 3.7036436 34
-13.033721 42.676735 5.4504185 13
-1.132538 45.471748 8.2835655 30
nan nan nan 0
-13.120631 42.536228 0.25615621 17
-9.1652279 43.4641 0 34
nan nan nan 0
-1.1195505 45.267857 -0.51327723 31
-13.12404 42.573711 1.297732 15
-9.105792 43.520554 1.0313716 29
-5.1061153 44.45557 0.79599047 12
-1.0589088 45.378971 0.54618669 43
-1.4201679 4.5343933 -2.1992598 17
-2.5755446 8.3545551 -2.2734401 11
-5.0667372 16.498709 -2.3924789 15
-7.9597631 25.527922 -2.528645 13
-12.337933 39.341534 -2.6276259 9
-2.6917214 12.501984 -0.89593792 16
-4.2291198 35.295834 -2.6885848 14
-0.90912586 32.978275 -2.6801326 14
-13.138139 42.514019 -1.8089426 10
-2.6401572 12.505627 -0.58972406 20
-4.3306794 36.851151 -1.929511 11
-0.96332461 37.588745 -2.185514 21
-12.992812 42.543011 -0.77575946 35
-2.6046097 12.564348 -0.29698211 13
-5.2335534 44.403595 -1.3023949 32
-0.98652482 45.326809 -1.5660079 24
-0.31143969 12.895236 -2.3369451 17
-0.53265142 22.213263 -2.495729 15
-1.0516622 45.409885 1.8465484 36
-12.945102 42.653126 2.5912499 13
-1.0752019 45.400749 3.7064931 33
-12.881805 42.712475 5.4492049 13
-0.97453821 45.50985 8.2898417 30
nan nan nan 0
-12.967699 42.567421 0.25606981 16
-9.0144691 43.500725 0 33
nan nan nan 0
-0.96269089 45.326477 -0.51390117 28
-12.970981 42.604919 1.2972949 16
-8.9548283 43.556969 1.0314876 23
-4.9531169 44.492996 0.79634649 14
-0.90109175 45.41238 0.54654795 41
-1.4043312 4.5393229 -2.1992598 16
-2.5477779 8.3681211 -2.274704 14
-5.0076756 16.511555 -2.3917906 14
-7.8779354 25.579334 -2.531002 13
-10.986269 35.46656 -2.3659775 9
-2.6459978 12.501545 -0.89523685 16
-4.229651 36.375145 -2.769748 13
-0.79567295 33.051003 -2.6858077 13
-12.980906 42.530956 -1.807723 16
-2.5944574 12.504985 -0.58926171 17
-5.0142837 43.995205 -2.3030403 12
nan nan nan 0
-12.841341 42.578533 -0.77558488 30
-2.5447638 12.494997 -0.29512525 12
-5.0802264 44.436489 -1.302832 30
-0.82947779 45.394924 -1.5682535 29
-0.26622581 12.886408 -2.3351569 19
-0.45460656 22.190151 -2.4929338 16
-0.89373171 45.443253 1.8477682 35
-12.79327 42.688492 2.5906689 13
-0.91741729 45.439106 3.7093427 34
-12.729798 42.747665 5.4479918 13
-0.81619865 45.542484 8.2952204 34
nan nan nan 0
-12.810387 42.583702 0.25589702 16
-8.8635664 43.536823 0 36
nan nan nan 0
-0.80517107 45.369553 -0.51435494 34
-12.816423 42.630791 1.296712 16
-8.8037214 43.592861 1.0316037 26
-4.7999196 44.529892 0.79670244 13
-0.74313551 45.450241 0.54696941 49
-1.3871483 4.539866 -2.197145 18
-2.519948 8.3815956 -2.2759676 17
-4.9528537 16.538422 -2.393167 13
-7.7784529 25.573343 -2.5277021 14
-12.046912 39.374226 -2.6241245 10
-2.5982773 12.491174 -0.89383477 17
-4.0993018 36.359959 -2.7674832 13
-0.67999315 33.038628 -2.6845913 11
-10.687672 35.463474 -1.5054533 14
-2.5497925 12.509072 -0.58903056 18
-4.0716629 36.865601 -1.9287312 15
-0.82886887 44.511673 -2.5880551 8
-12.689781 42.613518 -0.77541041 31
nan nan nan 0
-4.9267335 44.468857 -1.3032691 27
-0.67138106 45.422523 -1.5691173 30
-0.22066531 12.852827 -2.3288989 22
-0.37714574 22.191603 -2.4929338 12
-0.73566121 45.48106 1.8491911 37
-12.642763 42.7281 2.5903785 14
-0.75946063 45.481892 3.7125995 28
-12.577702 42.782314 5.4467783 12
-0.65771347 45.579483 8.3014965 31
nan nan nan 0
-12.663088 42.63295 0.2559258 19
-8.7125216 43.572403 0 33
nan nan nan 0
-0.64750367 45.422077 -0.51492214 36
-12.663268 42.660896 1.2962749 17
-8.6524744 43.628231 1.0317198 25
-4.6460071 44.561298 0.79696953 13
-0.58492595 45.487553 0.54739094 45
-1.3726069 4.5490165 -2.1992598 18
-2.4906754 8.3903408 -2.2759676 13
-4.9049339 16.58885 -2.3979836 12
-7.6805401 25.571737 -2.5248737 14
-10.728292 35.508957 -2.3637493 14
-2.5536594 12.49528 -0.89348423 17
-3.9501743 36.170841 -2.7520056 14
-0.5649159 33.055752 -2.6858077 15
-12.67654 42.5966 -1.8067065 16
-2.5041497 12.508101 -0.58856821 17
nan nan nan 0
-0.57077438 37.671638 -2.1898706 11
-12.538135 42.647961 -0.77523583 31
nan nan nan 0
-4.773077 44.500694 -1.3037064 28
-0.51304609 45.444576 -1.5698082 36
-0.17638646 12.89779 -2.3369451 19
-0.29987794 22.207687 -2.4946108 12
-0.57733762 45.518318 1.8506141 40
-12.490738 42.76239 2.5897977 14
-0.60115123 45.51915 3.7154491 33
-12.426904 42.821194 5.4461713 12
-0.49903321 45.62085 8.3086691 35
nan nan nan 0
-12.514194 42.676891 0.2559258 17
-8.5613356 43.607452 0 32
nan nan nan 0
-0.48937288 45.464054 -0.51537591 31
-12.511465 42.695248 1.2959834 14
-8.5010843 43.663071 1.0318358 23
-4.4924335 44.597137 0.79732549 13
-0.42646486 45.524311 0.5478124 44
-1.3593173 4.5624614 -2.2034893 19
-2.4627359 8.4036255 -2.2772315 13
-4.8567224 16.639145 -2.4028001 13
-7.5841498 25.574532 -2.5225167 15
-11.771737 39.457367 -2.6241245 10
-2.5178869 12.543238 -0.89628845 17
nan nan nan 0
-0.44925842 33.03759 -2.6841862 14
-10.438422 35.532425 -1.50525 13
-2.4595089 12.511866 -0.588337 17
-3.8208683 36.957695 -1.9321104 16
-0.44053718 37.783207 -2.1962597 8
-12.386401 42.681866 -0.77506131 29
-8.4173517 43.638569 -1.0309074 40
-4.6197734 44.536964 -1.3042891 28
-0.35487223 45.506054 -1.5718814 31
-0.13141179 12.903247 -2.3378391 19
-0.22240539 22.213568 -2.4951699 14
-0.41876292 45.555031 1.852037 37
-12.340009 42.800934 2.5895071 14
-0.44259089 45.555851 3.7182987 30
-12.275988 42.859543 5.4455647 12
-0.34007213 45.661667 8.3158426 33
nan nan nan 0
-12.366538 42.725117 0.25595462 18
-8.4109583 43.646893 0 28
nan nan nan 0
-0.33092123 45.500484 -0.515773 36
-12.360965 42.73386 1.2958378 15
-8.3486204 43.692478 1.0318358 24
-4.3381839 44.627472 0.79759258 12
-0.26775438 45.56052 0.54823393 47
-1.3446668 4.5715232 -2.2056038 19
-2.4333868 8.4121714 -2.2772315 14
-4.8095918 16.694065 -2.4083049 13
-7.4822359 25.557858 -2.5182741 14
-10.487185 35.606918 -2.3653407 14
-2.4760182 12.561737 -0.89698946 18
-3.6565382 35.795784 -2.7214277 12
-0.33388343 33.033974 -2.6837809 16
nan nan nan 0
-2.4139256 12.510567 -0.58787471 17
nan nan nan 0
-0.30832595 37.744587 -2.1939366 16
-12.233207 42.710426 -0.77479959 25
-8.2584658 43.633305 -1.030095 33
-4.468267 44.592606 -1.3054549 26
-0.19625457 45.561985 -1.5737816 34
-0.086401165 12.908546 -2.338733 17
-0.14489542 22.219175 -2.495729 14
-0.25993896 45.591183 1.8534598 40
-12.187798 42.834148 2.5889263 13
-0.28378171 45.592003 3.7211483 38
-12.123604 42.892578 5.4443512 13
-0.1808511 45.706844 8.3239117 27
nan nan nan 0
-12.21595 42.763218 0.2559258 18
-8.2594795 43.680897 0 30
nan nan nan 0
-0.17222111 45.536358 -0.51617002 36
-12.210348 42.771942 1.2956921 14
-8.1969757 43.726269 1.0319519 26
-4.1842432 44.662258 0.7979486 14
-0.10879623 45.596176 0.54865539 48
-1.3312383 4.5848885 -2.2098331 18
-2.405339 8.4252644 -2.2784951 15
-4.7512894 16.710752 -2.4083049 13
-7.3902106 25.574255 -2.5173311 14
-11.535015 39.672749 -2.6330373 9
-2.4444821 12.633961 -0.90154624 26
-3.5159137 35.649555 -2.7093475 15
-0.21857128 33.034939 -2.6837809 15
-12.228406 42.722206 -1.8065033 12
-2.3693106 12.514009 -0.5876435 17
-3.5661135 37.018261 -1.93393 18
nan nan nan 0
-12.079963 42.73843 -0.77453774 30
-8.1106701 43.686443 -1.0306753 29
-4.3145056 44.627831 -1.3060378 27
-0.037222836 45.577381 -1.5742999 35
-0.041355141 12.913689 -2.339627 20
-0.067335151 22.219547 -2.495729 13
-0.10086769 45.626781 1.8548827 40
-12.035504 42.866817 2.5883453 12
-0.12472551 45.627598 3.7239978 31
-11.972473 42.929859 5.4437447 13
-0.021317074 45.746548 8.3310843 29
nan nan nan 0
-12.062532 42.791161 0.25583941 18
-8.108778 43.719296 0 30
nan nan nan 0
-0.013274618 45.571682 -0.51656711 37
-12.060972 42.814304 1.2956921 15
-8.0451975 43.759537 1.0320679 24
-4.030561 44.701481 0.79839361 13
0.05040754 45.631271 0.54907686 45
-1.3139724 4.5851536 -2.2077184 18
-2.3772292 8.4382639 -2.2797587 15
-4.6942677 16.732002 -2.408993 11
-7.3159232 25.652548 -2.5225167 12
-10.23284 35.66008 -2.3640676 10
-2.3817425 12.544416 -0.89453578 15
-3.4070213 35.825397 -2.7218051 16
-0.10328606 33.045464 -2.6845913 13
nan nan nan 0
-2.3237886 12.512383 -0.58718115 17
-4.1245656 44.443573 -2.3214958 8
-0.044860676 37.790741 -2.1965504 16
-11.925331 42.761082 -0.77418876 30
-7.95544 43.699734 -1.0303271 23
-4.158699 44.642616 -1.3060378 23
0.12196982 45.612213 -1.5755092 32
0.003705126 12.889156 -2.3351569 18
0.010225953 22.219646 -2.495729 14
0.058448941 45.661831 1.8563057 38
-11.884465 42.903763 2.5880551 11
0.034575719 45.66264 3.7268474 30
-11.819912 42.961815 5.4425306 13
0.13852285 45.795532 8.3400497 27
nan nan nan 0
-11.910409 42.823372 0.25578183 20
-7.9579091 43.757172 0 26
nan nan nan 0
0.14591637 45.606449 -0.51696414 43
-11.907431 42.841698 1.2952549 15
-7.8941717 43.797188 1.0323 19
-3.8766558 44.740181 0.79883868 14
0.20987859 45.670818 0.54955858 45
-1.2979593 4.5897121 -2.2077184 21
-2.3490584 8.4511719 -2.2810225 15
-4.6384792 16.757833 -2.4103692 14
-7.2290339 25.687513 -2.5234594 14
nan nan nan 0
-2.3370259 12.547751 -0.8941853 16
-3.2774019 35.787426 -2.7180302 14
0.012067379 33.05061 -2.6849968 13
-9.9305611 35.636211 -1.5036238 13
-2.2809939 12.525331 -0.58741236 17
-3.3098116 37.06712 -1.9352295 14
0.087358817 37.915459 -2.2038112 17
-11.768032 42.773525 -0.77366513 35
-7.8063641 43.746922 -1.0307914 26
-3.9983819 44.607082 -1.3045806 26
nan nan nan 0
0.048882112 12.93334 -2.3432031 20
0.087745301 22.209538 -2.4946108 15
0.21803343 45.701313 1.857932 39
-11.731997 42.935352 2.5874741 14
0.19414181 45.702106 3.7301042 34
-11.667275 42.99324 5.4413176 13
0.29834563 45.789852 8.3391533 27
nan nan nan 0
-11.759532 42.859867 0.25575304 18
-7.8068762 43.794533 0 26
nan nan nan 0
0.30538395 45.645657 -0.51741791 35
-11.755168 42.87336 1.2949635 13
-7.7438526 43.839241 1.0326482 20
-3.7225294 44.778351 0.79928368 15
0.36962631 45.709805 0.5500403 40
-1.2819303 4.5942149 -2.2077184 18
-2.3208261 8.4639845 -2.2822862 15
-4.5825672 16.783478 -2.4117453 15
-7.1393237 25.712589 -2.5234594 14
-9.9634857 35.658566 -2.3592927 13
-2.2860365 12.516582 -0.89138114 16
-3.1542094 35.818516 -2.7195401 14
0.12745546 33.055347 -2.6854022 15
nan nan nan 0
-2.2319877 12.503717 -0.5860253 18
nan nan nan 0
0.21985605 37.93988 -2.2052634 8
-11.623893 42.833641 -0.77401417 27
-7.6561937 43.788673 -1.0311395 25
-3.8520799 44.730316 -1.3077863 22
nan nan nan 0
0.094140939 12.947848 -2.345885 25
0.16546129 22.233938 -2.4974062 14
0.37785244 45.735245 1.8593549 34
-11.580754 42.971218 2.5871837 13
0.35398391 45.74102 3.7333608 34
-11.514562 43.024109 5.440104 14
0.45877776 45.847557 8.3499126 23
nan nan nan 0
-11.608544 42.895828 0.25572422 17
-7.6565385 43.836288 0 29
nan nan nan 0
0.46512702 45.684307 -0.51787168 37
-11.601524 42.899658 1.2945263 16
-7.592483 43.875858 1.0328803 24
-3.5681844 44.81599 0.79972875 14
0.52959031 45.743229 0.55046177 45
-1.2646778 4.5942945 -2.2056038 16
-2.2925334 8.4767036 -2.28355 14
-4.5265331 16.808933 -2.4131215 14
-7.0666342 25.799763 -2.529588 14
nan nan nan 0
-2.2405715 12.514666 -0.89068007 16
-3.0312586 35.854145 -2.7214277 14
0.24287681 33.059689 -2.6858077 15
nan nan nan 0
-2.1917729 12.53111 -0.58695 17
nan nan nan 0
0.3520073 37.908932 -2.2035208 13
-11.475599 42.878784 -0.77410144 26
-7.5058284 43.82991 -1.0314876 23
-3.6975636 44.763416 -1.3083693 20
0.60079741 45.698372 -1.5786188 13
0.13961153 12.972036 -2.3503551 24
0.24323775 22.248133 -2.4990835 14
0.53797019 45.773605 1.8609809 33
-11.429404 43.006565 2.5868933 14
0.51404339 45.774387 3.7362103 35
-11.363044 43.059246 5.4394975 13
nan nan nan 0
nan nan nan 0
-11.45874 42.936085 0.25572422 16
-7.5043178 43.86768 0 30
nan nan nan 0
0.62521261 45.727398 -0.51838219 38
-11.450418 42.935066 1.2943805 15
-7.4417872 43.916882 1.0332285 18
-3.4132423 44.84811 0.80008477 14
0.68986809 45.781097 0.55094349 41
-1.2486331 4.5986814 -2.2056038 15
-2.2654293 8.4940014 -2.2860775 14
-4.4716487 16.838989 -2.4151857 12
-6.9687371 25.795441 -2.5267594 12
nan nan nan 0
-2.1960111 12.517498 -0.89032954 17
-2.9024644 35.819786 -2.7180302 13
0.35832995 33.063622 -2.6862128 15
-9.5516768 35.718941 -1.5028108 11
-2.1446414 12.518994 -0.5860253 16
-2.9273481 37.174416 -1.9391286 9
nan nan nan 0
-11.327131 42.923416 -0.77418876 30
-7.3544421 43.865707 -1.0317198 21
-3.5436506 44.805943 -1.3092434 18
0.76089692 45.730968 -1.579828 25
0.18525214 12.996065 -2.3548253 25
0.32111523 22.262051 -2.5007608 12
0.69836044 45.811413 1.8626071 31
-11.279214 43.0462 2.5868933 13
0.67441416 45.812176 3.7394671 34
-11.210168 43.089039 5.4382834 12
nan nan nan 0
nan nan nan 0
-11.307524 42.970993 0.25569543 17
-7.3511453 43.893608 0 29
nan nan nan 0
0.7856046 45.769928 -0.51889265 40
-11.300477 42.974773 1.2943805 15
-7.2900796 43.95245 1.0334605 18
-3.2581196 44.8797 0.80044079 13
0.85050994 45.823395 0.55148536 42
-1.2325732 4.6030116 -2.2056038 15
-2.2369993 8.5065355 -2.2873414 16
-4.4153538 16.864077 -2.4165618 14
-6.874805 25.80518 -2.5253451 14
-9.5947037 35.780228 -2.3605661 9
-2.1514578 12.520171 -0.889979 17
-2.782033 35.889347 -2.7225602 14
0.47374135 33.062168 -2.6862128 16
-11.295335 42.833675 -1.8008116 14
nan nan nan 0
nan nan nan 0
0.61689651 37.920525 -2.2043922 19
-11.177232 42.962696 -0.77418876 30
-7.2045145 43.910839 -1.0321839 24
-3.3906155 44.862888 -1.3105549 22
0.92163599 45.782993 -1.5817283 24
0.23168723 13.054362 -2.3655534 24
0.39945364 22.295568 -2.5046742 14
0.85902125 45.84866 1.8642334 33
-11.127637 43.080471 2.5866029 13
0.83505493 45.8494 3.7427237 24
-11.058458 43.1231 5.4376769 11
nan nan nan 0
nan nan nan 0
-11.1562 43.00536 0.25566664 16
-7.1978831 43.918999 0 26
nan nan nan 0
0.94630122 45.811893 -0.51940322 34
-11.150398 43.013958 1.2943805 14
-7.1390147 43.992432 1.0338087 19
-3.1031623 44.915733 0.8008858 14
1.0113447 45.860134 0.55196708 41
-1.2153362 4.6029072 -2.2034893 16
-2.2072923 8.5142918 -2.2873414 16
-4.3589392 16.888977 -2.417938 13
-6.779624 25.809765 -2.5234594 11
-10.575043 39.990967 -2.6362202 10
-2.1069129 12.522687 -0.88962847 17
-2.6530616 35.849117 -2.718785 12
0.5892365 33.065292 -2.6866183 14
-9.2983084 35.770252 -1.502201 15
nan nan nan 0
-2.6688232 37.208885 -1.9399085 17
0.7499553 37.953075 -2.2064252 8
-11.02471 42.99176 -0.77401417 27
-7.0535703 43.950527 -1.0325322 20
-3.2350717 44.889412 -1.3109921 23
nan nan nan 0
0.27587008 12.989536 -2.3539312 19
0.47598702 22.23443 -2.4979653 11
1.0200621 45.890331 1.8660628 32
-10.977189 43.119053 2.5866029 13
0.99585503 45.881081 3.7455733 24
-10.906647 43.156628 5.4370704 12
nan nan nan 0
nan nan nan 0
-11.004777 43.039196 0.25563782 17
-7.0445333 43.943855 0 28
nan nan nan 0
1.1073004 45.853294 -0.51991367 34
-11.000184 43.052616 1.2943805 14
-6.9869776 44.026958 1.0340408 17
-2.9479926 44.951237 0.80133086 13
1.1724465 45.896313 0.55244881 46
-1.1981149 4.6027379 -2.2013745 15
-2.1775584 8.521945 -2.2873414 16
-4.3024035 16.913687 -2.4193144 12
-6.7082219 25.905552 -2.5305307 13
-9.3383808 35.822197 -2.3589747 14
-2.0623765 12.525043 -0.88927794 17
-2.5328143 35.927788 -2.7240701 14
0.70454544 33.058056 -2.6862128 16
-11.015877 42.988914 -1.804064 13
nan nan nan 0
nan nan nan 0
0.8831321 37.980167 -2.2081678 12
-10.875799 43.034828 -0.77410144 26
-6.9024363 43.989697 -1.0328803 20
-3.0800667 44.925354 -1.3117206 27
1.2428689 45.835384 -1.5838014 16
0.32046857 12.958987 -2.348567 18
0.55359674 22.232634 -2.4979653 12
1.1812752 45.926441 1.867689 35
-10.825394 43.152264 2.5863123 13
1.1572649 45.927147 3.7496443 19
-10.755935 43.194435 5.4370704 12
nan nan nan 0
nan nan nan 0
-10.853251 43.072495 0.25560904 20
-6.8941956 43.987938 0 28
nan nan nan 0
1.2684612 45.889133 -0.52036744 40
-10.849834 43.090755 1.2943805 14
-6.8347845 44.060959 1.0342729 18
-2.792304 44.981213 0.80168688 15
1.3338128 45.931915 0.55293047 42
-1.1820412 4.6068926 -2.2013745 15
-2.148982 8.5341845 -2.2886047 14
-4.245749 16.93821 -2.4206905 13
-6.63377 25.991505 -2.536659 13
nan nan nan 0
-2.0178492 12.527242 -0.8889274 16
nan nan nan 0
0.82030833 33.070339 -2.6874287 17
-9.0446873 35.819759 -1.501591 15
nan nan nan 0
-2.4128599 37.286407 -1.9430277 18
1.0165069 38.006786 -2.2099102 6
-10.720679 43.053127 -0.77375239 26
-6.7518735 44.033291 -1.0333445 22
-2.924526 44.955784 -1.3123034 24
nan nan nan 0
0.36499798 12.933203 -2.3440971 18
0.63091528 22.220631 -2.4968472 11
1.3428994 45.966984 1.8695186 36
-10.674698 43.189789 2.5863123 13
1.318004 45.937771 3.7508655 18
-10.606277 43.236538 5.4376769 12
nan nan nan 0
nan nan nan 0
-10.700424 43.100418 0.25555146 17
-6.7428784 44.026562 0 25
nan nan nan 0
1.4300419 45.929398 -0.52087796 35
-10.698151 43.123512 1.2942349 15
-6.6831889 44.099377 1.0346211 16
-2.6370261 45.020626 0.80222094 15
1.4956053 45.971954 0.5534724 38
-1.167069 4.6153817 -2.2034893 16
-2.119179 8.5416336 -2.2886047 14
-4.1865973 16.952927 -2.4206905 13
-6.5587997 26.077255 -2.5427873 13
-3.1542745 12.470759 -0.81804949 16
-1.9733322 12.529284 -0.88857692 17
nan nan nan 0
0.93602389 33.077236 -2.6882396 17
nan nan nan 0
-5.6116142 36.557175 -1.7099918 14
-2.2906172 37.424187 -1.9497862 8
nan nan nan 0
-10.579864 43.129128 -0.77445048 28
-6.5996084 44.066475 -1.0335766 21
-2.7688107 44.985676 -1.3128864 23
1.5659037 45.915485 -1.586911 13
0.41093081 12.956433 -2.348567 18
0.70783776 22.198427 -2.4946108 14
1.5046573 46.001961 1.8711447 39
-10.523872 43.226788 2.5863123 13
1.4796358 45.972736 3.7541223 14
-10.455288 43.273296 5.4376769 11
nan nan nan 0
nan nan nan 0
-10.549911 43.137505 0.25555146 15
-6.5921159 44.069611 0 26
nan nan nan 0
1.5917459 45.964104 -0.52133173 34
-10.547556 43.160595 1.2942349 14
-6.5306768 44.132324 1.0348532 15
-2.4815068 45.059505 0.80275494 15
1.657513 46.006424 0.55395412 44
-1.1531525 4.6282172 -2.2077184 18
-2.0905018 8.5536776 -2.2898686 16
-4.123879 16.953001 -2.4186261 12
-6.4689317 26.104824 -2.5432587 13
-3.1203949 12.520424 -0.82059592 18
-1.9295847 12.536096 -0.88857692 16
nan nan nan 0
1.0511609 33.063805 -2.6874287 15
-8.7979717 35.896591 -1.502201 11
nan nan nan 0
-2.1542199 37.332253 -1.9445873 12
1.2846903 38.083572 -2.2148476 17
-10.421028 43.131783 -0.77383965 24
-6.4464707 44.094189 -1.0336927 17
-2.6143696 45.03997 -1.3141977 28
1.728994 45.984638 -1.5895021 20
0.4561547 12.95492 -2.348567 18
0.78478986 22.180927 -2.4929338 14
1.6666752 46.036369 1.8727709 35
-10.372919 43.26326 2.5863123 13
nan nan nan 0
-10.305321 43.314358 5.4382834 12
nan nan nan 0
nan nan nan 0
-10.40044 43.178928 0.25558025 16
-6.440412 44.107197 0 26
nan nan nan 0
1.7537093 45.998234 -0.5217855 35
-10.398004 43.202007 1.2943805 14
-6.3787303 44.169693 1.0352013 17
-2.3260057 45.102844 0.80337799 15
1.8196796 46.040325 0.55443579 45
-1.1391606 4.6410122 -2.2119479 18
-2.0617661 8.5656242 -2.2911322 15
-4.0554352 16.928768 -2.4131215 12
-6.3884015 26.170763 -2.5475013 13
nan nan nan 0
-1.8835868 12.527958 -0.88752532 16
nan nan nan 0
1.1697464 33.149582 -2.694725 17
nan nan nan 0
-5.3591571 36.615234 -1.7109165 14
nan nan nan 0
nan nan nan 0
-10.271564 43.172756 -0.77392691 26
-6.2939262 44.12632 -1.0339248 20
-2.4590387 45.083755 -1.3152177 28
1.8909404 46.013275 -1.5907114 23
0.50175762 12.96308 -2.3503551 17
0.86279356 22.192945 -2.4946108 13
1.8291508 46.075199 1.8746004 39
-10.221839 43.299206 2.5863123 13
nan nan nan 0
-10.154063 43.350067 5.4382834 13
nan nan nan 0
nan nan nan 0
-10.250808 43.219833 0.25560904 17
-6.2885256 44.144257 0 23
nan nan nan 0
1.9161386 46.036789 -0.52229601 35
-10.245984 43.233177 1.2942349 14
-6.2266026 44.206539 1.0355495 18
-2.1697526 45.135658 0.80382305 16
1.982103 46.073654 0.55491745 42
-1.1240234 4.6493626 -2.2140625 17
-2.0329728 8.5774765 -2.2923961 15
-4.0042872 16.976559 -2.417938 15
-6.3074908 26.23646 -2.551744 12
nan nan nan 0
-1.8412946 12.544326 -0.88822639 16
-1.8761489 35.413876 -2.6821671 13
1.2852589 33.14032 -2.69432 18
-10.260471 43.160046 -1.8034543 9
nan nan nan 0
-2.2120981 43.634789 -2.2723677 10
1.5548102 38.178413 -2.2209468 14
nan nan nan 0
-6.1405473 44.152973 -1.0340408 17
-2.303689 45.131996 -1.3163835 30
2.0537772 46.056316 -1.5924391 20
0.54700416 12.96125 -2.3503551 20
0.94089067 22.204691 -2.4962881 15
1.9917016 46.108463 1.8762265 36
-10.070634 43.334621 2.5863123 13
nan nan nan 0
-10.003797 43.390079 5.4388905 12
nan nan nan 0
nan nan nan 0
-10.102155 43.265091 0.25566664 17
-6.1357713 44.175842 0 24
nan nan nan 0
2.0788589 46.074772 -0.52280653 38
-10.092736 43.258942 1.2939434 13
-6.0742955 44.242859 1.0358976 16
-2.013521 45.172916 0.80435705 16
2.1450143 46.111404 0.55545944 44
-1.1067328 4.6488519 -2.2119479 17
-2.0052242 8.5939417 -2.2949235 15
-3.9539764 17.029024 -2.4234426 12
-6.2158704 26.258316 -2.551744 14
nan nan nan 0
-1.7946639 12.530928 -0.88682431 16
-1.7510431 35.390331 -2.6799021 12
1.4047358 33.225254 -2.701616 13
nan nan nan 0
-5.104784 36.661644 -1.7113788 9
-1.7657537 37.407627 -1.9474466 15
nan nan nan 0
nan nan nan 0
-5.9877291 44.184044 -1.0342729 17
-2.1475582 45.169716 -1.3172578 24
2.2166967 46.093784 -1.5939938 22
0.59224403 12.959262 -2.3503551 17
1.0190805 22.216164 -2.4979653 15
2.1547403 46.146145 1.878056 35
-9.9204197 43.374378 2.5866029 12
nan nan nan 0
-9.8511782 43.419899 5.4382834 11
nan nan nan 0
nan nan nan 0
-9.9499502 43.295216 0.25563782 14
-5.9835443 44.211861 0 20
nan nan nan 0
2.2416241 46.107189 -0.5232603 33
-9.9405546 43.289043 1.2937979 14
-5.9218106 44.27866 1.0362459 15
-1.8570558 45.209644 0.80489117 16
2.309715 46.178535 0.55636263 42
-1.0894593 4.6482768 -2.2098331 15
-1.976299 8.6056032 -2.2961872 13
-3.8889856 17.018583 -2.4200022 13
-6.129828 26.304094 -2.5541012 13
nan nan nan 0
-1.7488396 12.522296 -0.88577271 17
-1.6295564 35.441055 -2.6832998 12
1.5307667 33.43919 -2.719451 13
-2.8805385 12.521926 -0.52119666 20
-4.9821548 36.718838 -1.7132282 8
-1.6366906 37.448486 -1.9492662 9
1.8229761 38.20153 -2.22298 7
nan nan nan 0
-5.8354254 44.219543 -1.0346211 18
-1.9911919 45.206894 -1.318132 23
